15.328600 5.613037 57.378632 0.181798 0.946527 0.266525 
15.355230 5.618134 57.310341 0.145410 0.966971 0.209342 
15.388340 5.628476 57.249031 0.338389 0.937439 0.081866 
15.399170 5.620764 57.163620 0.217244 0.965426 0.144073 
15.431420 5.630408 57.101349 0.210744 0.924491 0.317652 
15.477440 5.651214 57.053970 0.290555 0.928894 0.229637 
15.487510 5.642866 56.967659 0.436272 0.888628 0.141447 
15.521360 5.653799 56.907070 0.291410 0.931165 0.219118 
15.542380 5.654328 56.832581 0.350843 0.909190 0.224239 
15.580050 5.668352 56.776112 0.316496 0.933750 0.167155 
15.586000 5.656647 56.685211 0.260648 0.906666 0.331692 
15.645140 5.688091 56.652031 0.197329 0.933168 0.300430 
15.655740 5.680147 56.566120 0.128663 0.960194 0.247939 
15.708100 5.706088 56.525570 0.119078 0.962988 0.241815 
15.731760 5.708734 56.453819 0.095824 0.981285 0.167028 
15.760970 5.715880 56.388081 0.254103 0.950911 0.176635 
15.792560 5.724955 56.324921 0.216916 0.963184 0.158822 
15.810410 5.722874 56.246769 0.405672 0.891753 0.200519 
15.849980 5.738431 56.192280 0.346202 0.918724 0.189976 
15.853720 5.724880 56.098701 0.396806 0.886271 0.238891 
15.905800 5.750591 56.057819 0.323063 0.907309 0.269110 
15.905630 5.733856 55.959919 0.478406 0.868256 0.131372 
15.946740 5.750643 55.907040 0.341450 0.926703 0.156948 
15.944620 5.732318 55.806938 0.333639 0.941034 0.056032 
15.982150 5.746196 55.750118 0.229431 0.963657 0.136844 
15.994690 5.739762 55.665951 0.189835 0.959151 0.209744 
16.038389 5.758648 55.615849 0.295083 0.938065 0.181547 
16.046110 5.748287 55.526360 0.230182 0.919756 0.317908 
16.102949 5.777857 55.490639 0.207670 0.878919 0.429388 
16.137871 5.789600 55.430901 0.087294 0.937661 0.336410 
16.171061 5.799942 55.369259 0.414614 0.870889 0.263908 
16.205500 5.811289 55.308971 0.243322 0.952345 0.183937 
16.215019 5.802380 55.221340 0.513792 0.856257 -0.053303 
10.570380 4.446471 68.558128 0.264748 0.886124 0.380385 
10.606550 4.459661 68.502228 0.455548 0.883015 0.112963 
10.605650 4.443351 68.409569 0.292704 0.918165 0.267016 
10.656260 4.468023 68.367950 0.262711 0.862068 0.433384 
10.697590 4.485312 68.317123 0.225361 0.916552 0.330372 
10.720030 4.487568 68.247559 0.344838 0.824995 0.447739 
10.774510 4.515327 68.209793 0.316773 0.821960 0.473325 
10.797620 4.518109 68.140846 0.242232 0.934197 0.261916 
10.830420 4.528600 68.081543 0.355021 0.904845 0.234979 
10.862820 4.538774 68.021797 0.281227 0.951848 0.122055 
10.864620 4.524575 67.931610 0.396791 0.917727 -0.018247 
10.891530 4.530370 67.866379 0.190597 0.977167 0.093897 
10.907400 4.527375 67.790154 0.212988 0.964867 0.153841 
10.948430 4.544408 67.738953 0.190607 0.964427 0.183166 
10.957000 4.535586 67.655380 0.240124 0.927619 0.286119 
11.008130 4.560668 67.614243 0.283119 0.907691 0.309742 
11.022070 4.556112 67.535988 0.403122 0.893803 0.196490 
11.053390 4.565408 67.475060 0.424962 0.889654 0.167102 
11.070140 4.563077 67.399551 0.291332 0.942486 0.163846 
11.098420 4.569944 67.335564 0.414999 0.875993 0.245787 
11.130720 4.580015 67.275574 0.270887 0.897536 0.347920 
11.164360 4.591141 67.216904 0.256137 0.859063 0.443176 
11.211470 4.613017 67.171722 0.337060 0.900686 0.274143 
11.218020 4.602544 67.085907 0.198790 0.960288 0.195780 
11.265340 4.624577 67.040916 0.287281 0.950344 0.119652 
11.269540 4.612219 66.952698 0.322977 0.946210 0.019297 
11.289070 4.612085 66.879822 0.416609 0.908694 0.026675 
11.301380 4.606183 66.799660 0.160713 0.967981 0.192831 
11.342280 4.623095 66.748192 0.171413 0.940585 0.293118 
11.377950 4.635826 66.691460 0.321918 0.932146 0.165748 
11.386890 4.627223 66.607849 0.304876 0.928796 0.210686 
11.435360 4.650175 66.563972 0.226704 0.937003 0.265762 
11.453160 4.648634 66.489227 0.263899 0.910348 0.318785 
11.497700 4.668441 66.441383 0.248622 0.895069 0.370187 
11.530790 4.679107 66.382004 0.187482 0.952338 0.240630 
11.554520 4.682292 66.313171 0.345475 0.914717 0.209615 
11.591280 4.695882 66.257469 0.286747 0.941937 0.174731 
11.599620 4.686772 66.173080 0.320521 0.929593 0.181998 
11.644320 4.706704 66.125366 0.341146 0.919985 0.192995 
11.641470 4.688645 66.029633 0.488588 0.843994 0.221258 
11.687750 4.709831 65.983490 0.414233 0.878254 0.238916 
11.688850 4.694921 65.891678 0.345437 0.900618 0.263744 
11.742020 4.721608 65.852478 0.289507 0.923707 0.250901 
11.750450 4.712547 65.768028 0.264252 0.942160 0.206167 
11.789790 4.728179 65.714828 0.283046 0.883125 0.374132 
11.829280 4.743933 65.661781 0.246127 0.898339 0.363881 
11.857650 4.750798 65.597458 0.343703 0.834912 0.429872 
11.903130 4.771340 65.550468 0.390900 0.878357 0.275113 
11.909460 4.760573 65.463760 0.236377 0.930929 0.278383 
11.964510 4.788762 65.426468 0.201436 0.946121 0.253533 
11.980930 4.786061 65.349960 0.155733 0.974257 0.163003 
12.012630 4.795578 65.288963 0.298972 0.939682 0.166176 
12.038060 4.800075 65.221558 0.260623 0.952512 0.157469 
12.056500 4.798969 65.147034 0.423616 0.873562 0.239666 
12.095690 4.814469 65.093590 0.352721 0.905011 0.237789 
12.107420 4.807992 65.012177 0.434782 0.883029 0.176707 
12.145040 4.822234 64.957130 0.279809 0.931558 0.232178 
12.160970 4.819109 64.879959 0.163709 0.945736 0.280682 
12.213390 4.845194 64.839973 0.196949 0.927929 0.316478 
12.242490 4.852610 64.776207 0.142572 0.965374 0.218466 
12.269990 4.858741 64.710777 0.168588 0.963154 0.209553 
12.310770 4.875501 64.658913 0.158554 0.977610 0.138347 
12.310680 4.859525 64.565262 0.264084 0.958961 0.103216 
12.359220 4.882500 64.521301 0.212231 0.965029 0.153876 
12.359350 4.866696 64.427834 0.371160 0.908196 0.193443 
12.402280 4.885168 64.378090 0.385336 0.904162 0.184412 
12.406970 4.873008 64.289223 0.291477 0.914585 0.280314 
12.461450 4.900733 64.251297 0.247456 0.936800 0.247330 
12.473190 4.894209 64.169594 0.103349 0.959753 0.261140 
12.522940 4.918148 64.126839 0.116920 0.909688 0.398494 
12.568610 4.938817 64.079903 0.299529 0.936461 0.182547 
12.568150 4.922500 63.985600 0.241330 0.962208 0.126161 
12.617630 4.946219 63.942558 0.270754 0.956156 0.111612 
12.598510 4.914927 63.829029 0.439655 0.897213 0.041380 
12.641030 4.933057 63.778790 0.246242 0.953870 0.171748 
12.646360 4.921363 63.690319 0.269253 0.918917 0.288260 
12.700480 4.948801 63.652012 0.270354 0.889552 0.368247 
12.721670 4.949820 63.579800 0.268488 0.884586 0.381343 
12.770710 4.973176 63.536251 0.220707 0.810560 0.542477 
12.817240 4.994519 63.490139 0.471637 0.829581 0.298922 
12.822900 4.983069 63.401871 0.523774 0.823562 0.217730 
12.869700 5.004629 63.356022 0.338660 0.881330 0.329495 
12.882390 4.998812 63.274960 0.314486 0.881707 0.351696 
12.938280 5.027660 63.238461 0.263846 0.875897 0.403968 
12.958770 5.028100 63.165428 0.261569 0.944806 0.197288 
12.987840 5.035419 63.101219 0.406116 0.908018 0.102826 
12.999530 5.028783 63.019039 0.196983 0.977222 0.078969 
13.022430 5.031135 62.948391 0.241348 0.960676 0.137304 
13.054510 5.040870 62.887260 0.180088 0.967860 0.175541 
13.071360 5.038357 62.810329 0.337819 0.866361 0.367826 
13.129450 5.068981 62.776119 0.342465 0.863587 0.370047 
13.139950 5.061362 62.692558 0.403029 0.866354 0.294956 
13.185340 5.081776 62.645168 0.388608 0.884660 0.257607 
13.196910 5.075010 62.562679 0.303389 0.945369 0.119302 
13.224590 5.081189 62.496891 0.181056 0.946772 0.266160 
13.270430 5.101957 62.449940 0.088526 0.961238 0.261121 
13.292830 5.103889 62.378632 0.230054 0.956948 0.176992 
13.331650 5.119011 62.324379 0.109977 0.978297 0.175613 
13.345340 5.113928 62.243969 0.307431 0.950200 0.051045 
13.375340 5.121959 62.180511 0.185948 0.980681 0.060727 
13.375010 5.105592 62.085442 0.279556 0.956365 0.084940 
13.416460 5.122828 62.033871 0.289286 0.941391 0.173484 
13.424000 5.112772 61.946941 0.255836 0.917383 0.304887 
13.484780 5.145557 61.915508 0.260409 0.929567 0.260944 
13.486680 5.130958 61.822639 0.273494 0.931381 0.240271 
13.535430 5.154061 61.778660 0.273555 0.915726 0.294302 
13.562090 5.159384 61.711601 0.252379 0.945255 0.206876 
13.587860 5.163981 61.643589 0.350759 0.897140 0.268528 
13.625640 5.178252 61.588120 0.264836 0.929985 0.254932 
13.643020 5.176094 61.511299 0.294320 0.918986 0.262376 
13.692420 5.199717 61.467979 0.264032 0.937671 0.225965 
13.693910 5.184748 61.374470 0.290669 0.954122 0.071850 
13.729690 5.197395 61.316860 0.230897 0.967661 0.101578 
13.735710 5.186077 61.228031 0.247915 0.960196 0.128692 
13.773730 5.200520 61.172741 0.272809 0.937123 0.217659 
13.794040 5.200694 61.098839 0.321186 0.914407 0.246372 
13.828920 5.212606 61.040218 0.378671 0.876460 0.297365 
13.858960 5.220616 60.976509 0.319201 0.908034 0.271266 
13.887670 5.227559 60.911400 0.405543 0.869229 0.282799 
13.918470 5.236177 60.848461 0.410153 0.867852 0.280369 
13.943720 5.240317 60.779659 0.315675 0.872918 0.371973 
13.996860 5.266942 60.740211 0.212874 0.925716 0.312625 
14.007000 5.258888 60.655460 0.184794 0.975783 0.117039 
14.043300 5.271938 60.598270 0.251381 0.966928 0.043102 
14.042480 5.255043 60.501911 0.223870 0.971958 0.071974 
14.079020 5.268269 60.444920 0.221771 0.963178 0.152006 
14.099010 5.268148 60.370461 0.133108 0.947609 0.290379 
14.147390 5.290926 60.325958 0.165471 0.889454 0.426018 
14.187760 5.307242 60.272991 0.318350 0.911031 0.262059 
14.200550 5.301304 60.190868 0.396584 0.851276 0.343585 
14.254560 5.328619 60.152309 0.391892 0.880609 0.266363 
14.250620 5.309166 60.052429 0.406538 0.901809 0.146513 
14.298690 5.331695 60.007580 0.160721 0.953564 0.254726 
14.311580 5.325818 59.925449 0.139787 0.968190 0.207525 
14.358370 5.347301 59.879219 0.137649 0.966855 0.215044 
14.378360 5.347150 59.804581 0.051493 0.979827 0.193100 
14.416290 5.361478 59.748951 0.152828 0.967742 0.200298 
14.447990 5.370780 59.686699 0.149045 0.975448 0.162130 
14.466290 5.369249 59.610199 0.245619 0.917435 0.313024 
14.521020 5.397150 59.572380 0.284267 0.926324 0.247217 
14.524020 5.383252 59.479580 0.546107 0.829095 0.119874 
14.557350 5.393858 59.418999 0.418484 0.880541 0.222528 
14.572890 5.390081 59.339481 0.273486 0.916852 0.290841 
14.625430 5.416210 59.299320 0.313248 0.920595 0.233197 
14.625260 5.399728 59.203011 0.190406 0.969214 0.156108 
14.672400 5.421482 59.157082 0.013926 0.945989 0.323901 
14.719000 5.442804 59.110580 0.055490 0.979092 0.195705 
14.731290 5.436388 59.027481 0.223376 0.971839 0.075046 
14.769090 5.450589 58.971581 0.101678 0.989077 0.106713 
14.774950 5.438958 58.881550 0.265262 0.963111 0.045315 
14.812190 5.452701 58.825020 0.194504 0.971013 0.138930 
14.821160 5.443578 58.738258 0.380821 0.882560 0.275796 
14.871440 5.467860 58.695629 0.214801 0.905778 0.365276 
14.892700 5.468671 58.621960 0.255952 0.896014 0.362832 
14.943260 5.493187 58.579639 0.319168 0.905889 0.278382 
14.954430 5.485822 58.495129 0.225480 0.955630 0.189553 
14.996460 5.503437 58.443668 0.141451 0.963673 0.226554 
15.024870 5.510020 58.377590 0.098035 0.986501 0.131169 
15.045320 5.510149 58.302952 0.206953 0.967847 0.142980 
15.085870 5.526556 58.249859 0.078141 0.986591 0.143291 
15.096160 5.518460 58.164280 0.214423 0.974389 0.067748 
15.129640 5.529132 58.103569 0.155067 0.983722 0.090803 
15.139370 5.520576 58.017330 0.191094 0.957524 0.215941 
15.191800 5.546591 57.976959 0.181170 0.953723 0.239980 
15.203950 5.539981 57.893261 0.271806 0.907151 0.321246 
15.256000 5.565696 57.852489 0.453230 0.861639 0.228386 
15.254160 5.547740 57.753681 0.316436 0.921962 0.223281 
15.305550 5.572910 57.712181 0.259589 0.938936 0.225860 
15.325700 5.572768 57.637001 0.145840 0.979951 0.135748 
15.353900 5.579147 57.570492 0.272630 0.956904 0.100035 
15.375610 5.580257 57.496948 0.128000 0.978889 0.159350 
15.405420 5.587927 57.432129 0.208114 0.944895 0.252709 
15.447050 5.605188 57.380070 0.249097 0.946834 0.203609 
15.455310 5.595380 57.291931 0.313103 0.942270 0.118720 
15.495980 5.611851 57.238800 0.212036 0.964005 0.160419 
15.505270 5.602870 57.151718 0.275497 0.948831 0.154340 
15.540860 5.615222 57.093071 0.320844 0.933589 0.159599 
15.554710 5.609931 57.010872 0.314843 0.932897 0.174865 
15.592310 5.623906 56.954369 0.275098 0.943159 0.186475 
15.605110 5.617745 56.870960 0.304543 0.924734 0.228298 
15.650010 5.637644 56.822361 0.266095 0.932735 0.243309 
15.667020 5.634897 56.743469 0.084908 0.951496 0.295713 
15.721510 5.662570 56.705250 0.149819 0.895765 0.418520 
15.763650 5.680223 56.653641 0.049841 0.956157 0.288583 
15.785960 5.681776 56.580471 0.130247 0.966199 0.222476 
15.835170 5.705167 56.536530 0.144079 0.974565 0.171653 
15.837180 5.690223 56.441231 0.192158 0.979169 0.065598 
15.874650 5.704073 56.384480 0.286321 0.957958 0.018322 
15.866900 5.681187 56.278481 0.338632 0.928444 0.152706 
15.914610 5.703351 56.232861 0.353764 0.924545 0.141663 
15.912680 5.685175 56.133110 0.373015 0.887756 0.269721 
15.966170 5.712031 56.093769 0.463405 0.845761 0.264469 
15.963540 5.693283 55.993198 0.393726 0.892408 0.220427 
16.012110 5.716137 55.948471 0.378317 0.894615 0.237785 
16.020250 5.706130 55.859589 0.399208 0.909041 0.119490 
16.051081 5.714556 55.795460 0.291046 0.939116 0.182628 
16.070841 5.713983 55.719219 0.167761 0.968216 0.185510 
16.106079 5.725993 55.659882 0.304978 0.941169 0.145567 
16.124941 5.724684 55.582611 0.155094 0.965827 0.207663 
16.158850 5.735607 55.521778 0.172673 0.885460 0.431444 
16.220690 5.769250 55.491562 0.301346 0.888664 0.345639 
16.223289 5.754699 55.396400 0.386491 0.864153 0.322280 
16.287291 5.790098 55.368549 0.362292 0.867424 0.341058 
16.283560 5.770387 55.266380 0.537426 0.832794 -0.132770 
10.641260 4.417354 68.602493 0.192301 0.941701 0.276080 
10.677310 4.430441 68.546471 0.313502 0.931599 0.183957 
10.697730 4.431091 68.474968 0.254457 0.961543 0.103372 
10.712080 4.426899 68.397423 0.331938 0.890421 0.311395 
10.762160 4.451159 68.355293 0.360947 0.885283 0.293243 
10.768710 4.440748 68.269951 0.333615 0.856360 0.394142 
10.829420 4.473477 68.238380 0.131831 0.821614 0.554591 
10.875330 4.494416 68.192123 0.321702 0.903919 0.281849 
10.884090 4.485754 68.108910 0.437763 0.857354 0.270756 
10.931660 4.508014 68.064293 0.358538 0.897338 0.257361 
10.936510 4.496225 67.977127 0.455343 0.888309 0.059746 
10.962670 4.501419 67.911171 0.332543 0.936695 0.109624 
10.971090 4.492473 67.827522 0.278888 0.938360 0.204213 
11.015050 4.511845 67.779259 0.266820 0.936691 0.226755 
11.030770 4.508710 67.702843 0.145108 0.959636 0.240921 
11.073750 4.527294 67.653580 0.323229 0.922575 0.210664 
11.092140 4.526278 67.579781 0.213925 0.960908 0.175764 
11.122440 4.534753 67.517853 0.298748 0.938985 0.170460 
11.149730 4.540833 67.452904 0.321039 0.943469 0.082466 
11.152990 4.527730 67.363907 0.407148 0.894610 0.184130 
11.196300 4.546579 67.314941 0.209696 0.916250 0.341341 
11.221260 4.550784 67.247597 0.285829 0.860529 0.421653 
11.275710 4.578513 67.209778 0.158787 0.856726 0.490722 
11.315360 4.594444 67.157143 0.228762 0.947271 0.224378 
11.327000 4.588006 67.076424 0.422447 0.905987 0.026961 
11.345700 4.587209 67.002747 0.290533 0.956202 0.035613 
11.357370 4.580789 66.921989 0.306779 0.942980 0.129134 
11.397890 4.597401 66.870178 0.235536 0.950092 0.204570 
11.408760 4.590333 66.788567 0.323128 0.933303 0.156632 
11.441770 4.600943 66.729179 0.264251 0.946791 0.183734 
11.463290 4.602373 66.658234 0.247590 0.946544 0.206769 
11.495200 4.612095 66.597702 0.382105 0.901098 0.204984 
11.515190 4.612299 66.525177 0.299791 0.899249 0.318555 
11.559100 4.631605 66.476707 0.270723 0.848479 0.454744 
11.598540 4.647346 66.423737 0.417741 0.868081 0.268194 
11.611240 4.641713 66.343811 0.430826 0.862605 0.265143 
11.651520 4.658115 66.291656 0.435412 0.871861 0.224221 
11.659970 4.649077 66.207397 0.418254 0.874013 0.247313 
11.700970 4.666054 66.155960 0.446124 0.873024 0.196981 
11.704030 4.652700 66.066200 0.289789 0.933967 0.209112 
11.748750 4.672637 66.018494 0.220990 0.946804 0.233937 
11.768430 4.672567 65.945473 0.110355 0.970829 0.212868 
11.805950 4.686751 65.890472 0.295056 0.936931 0.187357 
11.829000 4.689362 65.820824 0.220753 0.964979 0.141720 
11.848470 4.689104 65.747520 0.286548 0.917061 0.277290 
11.892680 4.708632 65.699257 0.228622 0.920686 0.316337 
11.914940 4.710601 65.628761 0.240450 0.889441 0.388688 
11.970750 4.739418 65.592270 0.176656 0.889126 0.422195 
12.003510 4.749783 65.532387 0.048644 0.964557 0.259353 
12.032190 4.756880 65.468353 0.217068 0.950908 0.220580 
12.071160 4.772219 65.414772 0.289731 0.943098 0.163161 
12.078980 4.762612 65.329514 0.415822 0.901020 0.123512 
12.112130 4.773289 65.269981 0.277006 0.951573 0.133326 
12.116420 4.760848 65.181068 0.316785 0.931730 0.177556 
12.159730 4.779643 65.131844 0.266119 0.946038 0.184915 
12.166950 4.769544 65.045853 0.256945 0.946981 0.192889 
12.212410 4.790061 64.998787 0.136678 0.944860 0.297587 
12.246080 4.801134 64.939720 0.240787 0.943739 0.226666 
12.267350 4.802276 64.867989 0.376610 0.866504 0.327622 
12.314180 4.823886 64.822319 0.316474 0.889441 0.329757 
12.330400 4.820977 64.745399 0.289894 0.893497 0.342965 
12.383620 4.847711 64.706253 0.292409 0.916182 0.274057 
12.390790 4.837533 64.620033 0.275708 0.950111 0.145857 
12.425300 4.849271 64.561737 0.355288 0.924248 0.139773 
12.437050 4.842762 64.480171 0.163126 0.977288 0.135269 
12.470150 4.853354 64.420387 0.260035 0.956500 0.132247 
12.492540 4.855371 64.349663 0.100199 0.971129 0.216490 
12.527870 4.867748 64.292152 0.252718 0.939193 0.232488 
12.560400 4.877889 64.231773 0.344544 0.909541 0.232434 
12.581790 4.879089 64.159950 0.475900 0.794679 0.376834 
12.623990 4.896972 64.109459 0.442027 0.843938 0.303941 
12.635850 4.890522 64.027817 0.313778 0.909792 0.271701 
12.680360 4.910258 63.979679 0.409667 0.901420 0.140054 
12.670860 4.886657 63.876041 0.234583 0.968732 0.080798 
12.713000 4.904485 63.825439 0.272911 0.952269 0.136762 
12.724840 4.897998 63.743671 0.242538 0.949693 0.198138 
12.762260 4.912038 63.688190 0.317379 0.895983 0.310621 
12.793990 4.921511 63.626850 0.172955 0.934297 0.311730 
12.824560 4.930048 63.564308 0.330866 0.862148 0.383704 
12.865550 4.946946 63.512482 0.429251 0.874767 0.224778 
12.871020 4.935320 63.424019 0.411460 0.860513 0.300363 
12.920660 4.959166 63.381100 0.345651 0.878872 0.328800 
12.936200 4.955626 63.302990 0.343915 0.846943 0.405474 
12.990560 4.983255 63.264931 0.363995 0.790670 0.492289 
13.020340 4.991144 63.201488 0.339592 0.897619 0.280992 
13.045680 4.995461 63.133450 0.318969 0.912169 0.257306 
13.087170 5.012758 63.082088 0.220354 0.955551 0.195874 
13.097580 5.005075 62.998569 0.367205 0.919989 0.137044 
13.133050 5.017523 62.940948 0.370529 0.916293 0.152038 
13.136840 5.004505 62.850491 0.344419 0.903189 0.256173 
13.181520 5.024353 62.802399 0.310129 0.891129 0.331224 
13.204220 5.026530 62.731510 0.184803 0.943062 0.276554 
13.243980 5.042421 62.678291 0.269652 0.928913 0.253790 
13.273570 5.050136 62.614521 0.258428 0.947245 0.189581 
13.297450 5.053255 62.544788 0.239380 0.915059 0.324598 
13.344210 5.074765 62.498821 0.359016 0.887552 0.288719 
13.354790 5.067184 62.415249 0.331362 0.891323 0.309422 
13.408920 5.094625 62.376930 0.447870 0.853618 0.265988 
13.402310 5.073198 62.275410 0.367950 0.913396 0.174129 
13.451670 5.096803 62.232121 0.339224 0.927386 0.157742 
13.448570 5.078187 62.134178 0.360489 0.931116 0.055406 
13.477380 5.085245 62.069450 0.273400 0.944191 0.183730 
13.504970 5.091319 62.003429 0.049678 0.958877 0.279440 
13.544950 5.107366 61.950329 0.228689 0.939839 0.253779 
13.579470 5.119021 61.891529 0.165065 0.967766 0.190219 
13.596550 5.116626 61.814499 0.374329 0.910067 0.177924 
13.631130 5.128319 61.755718 0.353048 0.916585 0.187696 
13.643340 5.121993 61.673550 0.382978 0.870268 0.309775 
13.695170 5.147578 61.632790 0.359185 0.878095 0.316125 
13.702360 5.137201 61.545319 0.390580 0.860950 0.325902 
13.754880 5.163339 61.505268 0.333891 0.877656 0.343856 
13.767380 5.157227 61.423309 0.187531 0.969907 0.155280 
13.803480 5.170133 61.366051 0.310829 0.946185 0.090103 
13.814380 5.162724 61.282349 0.284998 0.954149 0.091524 
13.840410 5.167504 61.214489 0.335136 0.930116 0.150228 
13.863650 5.170034 61.143688 0.267946 0.948445 0.169283 
13.887930 5.173401 61.073959 0.379259 0.890789 0.250316 
13.924800 5.186913 61.017429 0.309816 0.914382 0.260615 
13.942150 5.184689 60.940392 0.436318 0.863816 0.251892 
13.982230 5.200785 60.887211 0.343024 0.894429 0.286935 
13.998960 5.198043 60.809460 0.269223 0.864944 0.423545 
14.060880 5.231757 60.779270 0.205797 0.849873 0.485143 
14.093430 5.241779 60.718151 0.182090 0.955021 0.234047 
14.116760 5.244354 60.647301 0.319823 0.944692 0.072601 
14.136350 5.243915 60.572491 0.150512 0.986767 0.060313 
14.152480 5.240675 60.493999 0.333694 0.941495 0.047280 
14.175070 5.242644 60.422298 0.202255 0.956353 0.210906 
14.205590 5.251008 60.358952 0.292052 0.885338 0.361778 
14.249370 5.270078 60.309601 0.345927 0.897955 0.272051 
14.262890 5.264709 60.228249 0.256981 0.916851 0.305523 
14.310200 5.286631 60.182621 0.381434 0.903606 0.194949 
14.314720 5.273991 60.091709 0.174585 0.953835 0.244374 
14.371620 5.303648 60.056210 0.148263 0.941922 0.301331 
14.399580 5.309928 59.990070 0.133507 0.959675 0.247385 
14.433690 5.321181 59.930439 0.077136 0.946260 0.314073 
14.484000 5.345518 59.887959 0.127904 0.968648 0.212982 
14.492570 5.336129 59.801220 0.255590 0.959234 0.120601 
14.530210 5.350224 59.745289 0.176789 0.972907 0.148987 
14.542060 5.343476 59.661961 0.193872 0.961152 0.196472 
14.583020 5.360253 59.609539 0.429184 0.898416 0.093008 
14.576120 5.338332 59.506222 0.423107 0.893656 0.149531 
14.619960 5.357427 59.456821 0.253307 0.934791 0.249000 
14.637400 5.355177 59.379318 0.203849 0.936984 0.283738 
14.682160 5.375016 59.330891 0.256089 0.899679 0.353549 
14.724090 5.392571 59.279449 0.218440 0.932373 0.288037 
14.744190 5.392465 59.204739 0.242823 0.894113 0.376297 
14.801710 5.422621 59.169899 0.319816 0.890041 0.324876 
14.802000 5.406478 59.074009 0.321032 0.928097 0.188612 
14.850840 5.429613 59.029911 0.328545 0.923160 0.199583 
14.848480 5.411316 58.931129 0.405073 0.911680 0.068967 
14.880520 5.420851 58.869049 0.473627 0.873541 0.112266 
14.885870 5.408781 58.778431 0.374835 0.870232 0.319679 
14.941370 5.437303 58.741409 0.247118 0.860067 0.446337 
14.964330 5.439479 58.669579 0.243237 0.913167 0.327051 
15.007330 5.457877 58.619179 0.277857 0.882639 0.379137 
15.044880 5.471866 58.562950 0.143227 0.945554 0.292256 
15.071990 5.477394 58.495510 0.254493 0.920256 0.297258 
15.118550 5.498673 58.448910 0.345041 0.909661 0.231224 
15.119200 5.482767 58.353069 0.160449 0.971356 0.175281 
15.172470 5.509481 58.313660 0.189577 0.965677 0.177564 
15.181660 5.500472 58.226910 0.140374 0.985755 0.092639 
15.216630 5.512357 58.167831 0.234325 0.970035 0.064224 
15.226460 5.503867 58.081711 0.091424 0.987793 0.126119 
15.263120 5.517112 58.024410 0.284960 0.951426 0.116559 
15.280060 5.514373 57.945889 0.193870 0.965858 0.171850 
15.309240 5.521547 57.880508 0.250987 0.937125 0.242494 
15.355610 5.542662 57.833630 0.135575 0.968759 0.207665 
15.365590 5.534265 57.747540 0.330626 0.928315 0.170050 
15.410110 5.553876 57.698662 0.234173 0.953066 0.191906 
15.416570 5.542612 57.608700 0.316116 0.938976 0.135625 
15.458510 5.560128 57.557011 0.221393 0.962353 0.157679 
15.463930 5.548008 57.465870 0.326666 0.918016 0.224802 
15.512010 5.570497 57.420792 0.267276 0.933353 0.239615 
15.523390 5.563209 57.336040 0.242003 0.953781 0.178148 
15.562910 5.578749 57.281681 0.257652 0.949333 0.179949 
15.580730 5.576682 57.203850 0.168200 0.974610 0.147799 
15.613830 5.587010 57.142529 0.410964 0.908953 0.070093 
15.623340 5.578178 57.055630 0.276470 0.939129 0.203963 
15.665900 5.596181 57.004520 0.466643 0.867046 0.174571 
15.675180 5.587153 56.917320 0.305285 0.923963 0.230422 
15.715220 5.603108 56.863461 0.367355 0.875885 0.312852 
15.747060 5.612394 56.800678 0.302718 0.905104 0.298576 
15.770550 5.614895 56.728821 0.267409 0.821294 0.503953 
15.843630 5.657687 56.710838 0.297425 0.829887 0.472044 
15.855340 5.650618 56.626160 0.217283 0.924300 0.313780 
15.908740 5.677411 56.586781 0.248694 0.914972 0.317770 
15.931610 5.679407 56.514210 0.291995 0.951094 0.100792 
15.946690 5.675060 56.433109 0.470012 0.881983 -0.034583 
15.954630 5.664903 56.344212 0.235946 0.969364 0.068284 
15.978910 5.668031 56.273090 0.499203 0.866170 -0.023358 
15.978310 5.650915 56.174801 0.407520 0.895317 0.179821 
16.016550 5.665379 56.118839 0.444375 0.868580 0.219316 
16.032459 5.661685 56.038509 0.259646 0.941571 0.214541 
16.067820 5.673803 55.979382 0.468367 0.872617 0.138464 
16.078360 5.665724 55.893108 0.280931 0.933900 0.221154 
16.124910 5.686937 55.846180 0.144606 0.942427 0.301531 
16.157780 5.697023 55.784290 0.146774 0.977772 0.149733 
16.172430 5.692278 55.702450 0.193956 0.969542 0.149566 
16.217100 5.711966 55.653450 0.167637 0.976661 0.134283 
16.222540 5.699717 55.561470 0.233318 0.931239 0.279923 
16.274120 5.725016 55.520012 0.290240 0.927630 0.235082 
16.282110 5.714830 55.430759 0.277907 0.902571 0.328836 
16.334160 5.740514 55.389820 0.356178 0.882580 0.306903 
16.351669 5.738077 55.310970 0.356279 0.926187 0.123463 
16.380980 5.745237 55.245041 0.328971 0.921420 0.206794 
10.701130 4.395111 68.727623 0.350759 0.936465 -0.001359 
10.714370 4.390038 68.649063 0.342174 0.934437 0.098711 
10.736590 4.392117 68.579361 0.367921 0.893589 0.257162 
10.770950 4.403860 68.521683 0.259452 0.953380 0.154115 
10.779230 4.394825 68.438133 0.242159 0.948001 0.206526 
10.821770 4.413082 68.388527 0.203460 0.939114 0.276891 
10.850150 4.420058 68.324883 0.103524 0.949700 0.295554 
10.888100 4.434654 68.270721 0.248457 0.856343 0.452709 
10.934150 4.455703 68.224602 0.481095 0.828659 0.286134 
10.941810 4.446150 68.140312 0.431528 0.842261 0.323080 
10.990220 4.469082 68.096527 0.533815 0.796147 0.284941 
10.991490 4.454430 68.005836 0.385746 0.899012 0.207310 
11.038410 4.476167 67.960548 0.344257 0.911696 0.224270 
11.048980 4.468919 67.879059 0.223848 0.960533 0.165129 
11.082840 4.480242 67.820747 0.224612 0.932628 0.282408 
11.122930 4.496532 67.768646 0.249105 0.945232 0.210910 
11.131870 4.487972 67.685463 0.309056 0.926779 0.213459 
11.183440 4.513421 67.644791 0.270228 0.937779 0.218054 
11.183710 4.497935 67.552887 0.360654 0.924941 0.120057 
11.222420 4.513114 67.499359 0.316597 0.943305 0.099713 
11.221550 4.496707 67.406250 0.233004 0.957259 0.171363 
11.271080 4.520514 67.363518 0.271571 0.934574 0.229827 
11.281070 4.512764 67.281212 0.263527 0.907587 0.326863 
11.333310 4.538742 67.241203 0.246382 0.795059 0.554236 
11.379960 4.560257 67.195580 0.377577 0.847549 0.372956 
11.397360 4.558414 67.120644 0.475821 0.865739 0.155208 
11.425770 4.565354 67.056717 0.397621 0.914667 0.072679 
11.419800 4.544840 66.958290 0.396415 0.908112 0.134861 
11.460980 4.561977 66.907143 0.297177 0.912987 0.279536 
11.483720 4.564378 66.837471 0.203980 0.954493 0.217566 
11.518690 4.576553 66.780083 0.286761 0.945308 0.155441 
11.533070 4.572273 66.701958 0.213854 0.969596 0.118955 
11.560210 4.578183 66.636658 0.245915 0.961656 0.121424 
11.582380 4.580118 66.566330 0.169922 0.964641 0.201481 
11.613570 4.589261 66.505074 0.290203 0.900679 0.323357 
11.652770 4.604804 66.451874 0.356030 0.896245 0.264552 
11.672080 4.604444 66.378609 0.328412 0.907781 0.260920 
11.709710 4.618722 66.323792 0.433213 0.880787 0.191155 
11.720790 4.611779 66.242203 0.372668 0.893386 0.250959 
11.762800 4.629564 66.191788 0.343892 0.886954 0.308304 
11.788780 4.634522 66.125183 0.105308 0.959931 0.259697 
11.825100 4.647752 66.069023 0.196309 0.942396 0.270835 
11.862610 4.661934 66.014053 0.171799 0.969849 0.172856 
11.870000 4.652013 65.928589 0.295123 0.944327 0.145428 
11.913790 4.671207 65.879936 0.201038 0.963243 0.178178 
11.921300 4.661380 65.794563 0.246479 0.948581 0.198602 
11.967380 4.682405 65.748207 0.233501 0.932300 0.276213 
11.985080 4.680723 65.673103 0.216388 0.930176 0.296562 
12.028500 4.699622 65.624062 0.106902 0.836531 0.537390 
12.094600 4.736680 65.598030 0.288331 0.875065 0.388750 
12.098920 4.724268 65.509277 0.505417 0.850105 0.147904 
12.131230 4.734269 65.448936 0.420445 0.890407 0.174359 
12.138410 4.724142 65.363037 0.268185 0.934128 0.235544 
12.192210 4.751351 65.324516 0.238990 0.947626 0.211868 
12.196360 4.738780 65.235489 0.160271 0.978264 0.131576 
12.237910 4.756177 65.184486 0.197933 0.962797 0.183968 
12.260060 4.758020 65.113731 0.108046 0.985593 0.130122 
12.283450 4.760860 65.044212 0.294911 0.942912 0.154740 
12.311630 4.767532 64.979553 0.324380 0.934632 0.145742 
12.326270 4.763349 64.901070 0.360069 0.884820 0.295709 
12.372020 4.784098 64.854309 0.329346 0.871264 0.363909 
12.395590 4.787069 64.784897 0.371668 0.836086 0.403512 
12.443040 4.809185 64.739883 0.426243 0.817261 0.387817 
12.461210 4.807813 64.664909 0.280442 0.939970 0.194444 
12.490510 4.815374 64.601318 0.222854 0.935744 0.273349 
12.535220 4.835283 64.553467 0.245895 0.950119 0.191859 
12.539760 4.822975 64.464500 0.293097 0.947881 0.124967 
12.581210 4.840269 64.413292 0.202459 0.962029 0.183057 
12.590530 4.831781 64.329163 0.520240 0.851635 0.063786 
12.611460 4.832603 64.256889 0.451964 0.879420 0.149496 
12.627690 4.829655 64.179787 0.361839 0.851554 0.379379 
12.683600 4.858541 64.143356 0.291131 0.883991 0.365789 
12.700170 4.855861 64.066566 0.267815 0.921087 0.282619 
12.743930 4.874993 64.017677 0.277647 0.928783 0.245506 
12.765660 4.876448 63.946152 0.198234 0.977552 0.071375 
12.778060 4.870406 63.865002 0.377296 0.925911 0.018371 
12.797230 4.869785 63.790771 0.198775 0.971744 0.127287 
12.821150 4.872986 63.721420 0.172125 0.933932 0.313281 
12.878420 4.902968 63.686401 0.169655 0.941765 0.290338 
12.889520 4.895857 63.603809 0.267265 0.927290 0.262113 
12.940140 4.920501 63.561932 0.234919 0.945084 0.227222 
12.944930 4.908315 63.472790 0.236517 0.954036 0.184053 
12.989300 4.927927 63.424438 0.328100 0.918907 0.219000 
13.001100 4.921369 63.342480 0.323740 0.908697 0.263559 
13.040850 4.937262 63.289341 0.291321 0.819194 0.494018 
13.091690 4.962073 63.247669 0.271342 0.887202 0.373157 
13.109000 4.959931 63.171341 0.358120 0.878831 0.315287 
13.155630 4.981360 63.125320 0.386888 0.891776 0.234634 
13.152780 4.963003 63.028080 0.430389 0.889232 0.155022 
13.193380 4.979574 62.975780 0.306647 0.930554 0.200094 
13.205070 4.972896 62.893532 0.165751 0.960072 0.225362 
13.253750 4.995967 62.849602 0.030351 0.931808 0.361681 
13.298510 5.015883 62.801609 0.182389 0.959999 0.212453 
13.311000 5.009838 62.720119 0.333336 0.933718 0.130607 
13.342000 5.018681 62.657822 0.268751 0.951745 0.148167 
13.356000 5.013833 62.577839 0.368116 0.891167 0.265164 
13.398510 5.031939 62.527470 0.402979 0.871466 0.279562 
13.413940 5.028242 62.448940 0.391325 0.869435 0.301574 
13.452520 5.043168 62.394451 0.438813 0.851522 0.286972 
13.478070 5.047610 62.326420 0.340960 0.903687 0.259029 
13.509080 5.056448 62.264042 0.476503 0.864282 0.161123 
13.522010 5.050720 62.182812 0.235247 0.961853 0.139634 
13.555790 5.061781 62.123280 0.140292 0.941915 0.305145 
13.602280 5.083073 62.077000 0.150111 0.959640 0.237818 
13.610890 5.073853 61.991192 0.259718 0.948560 0.181054 
13.655720 5.093805 61.943150 0.247774 0.953513 0.171523 
13.661020 5.081913 61.853840 0.293355 0.948296 0.121150 
13.696980 5.094714 61.796520 0.410784 0.906489 0.097640 
13.702270 5.082797 61.707119 0.375203 0.880559 0.289548 
13.750620 5.105584 61.662731 0.392832 0.873637 0.287125 
13.759730 5.096737 61.577271 0.294800 0.895314 0.333924 
13.814090 5.124362 61.539169 0.158526 0.854663 0.494389 
13.860840 5.145860 61.493099 0.228743 0.940687 0.250569 
13.866730 5.134407 61.404209 0.432092 0.901657 0.017617 
13.889620 5.136652 61.333092 0.219032 0.970026 0.105233 
13.908000 5.135262 61.257229 0.273911 0.949401 0.153655 
13.944510 5.148486 61.200371 0.209370 0.970938 0.115949 
13.946760 5.134076 61.107521 0.270758 0.946196 0.177209 
13.996110 5.157652 61.064121 0.239873 0.954187 0.178854 
14.000510 5.144963 60.973461 0.297729 0.931919 0.207086 
14.047790 5.166869 60.927879 0.196479 0.944729 0.262455 
14.067960 5.166904 60.853771 0.187930 0.925855 0.327835 
14.113960 5.187772 60.806820 0.139755 0.847546 0.511991 
14.167570 5.214789 60.767899 0.219880 0.919686 0.325316 
14.183320 5.211241 60.689079 0.283738 0.937196 0.202870 
14.226770 5.230058 60.639450 0.292879 0.948946 0.117149 
14.219490 5.207898 60.536270 0.370490 0.927621 0.047503 
14.257230 5.222101 60.480579 0.226907 0.959097 0.169250 
14.268260 5.214716 60.396660 0.242921 0.941832 0.232256 
14.314310 5.235623 60.349731 0.193678 0.934975 0.297170 
14.343960 5.243277 60.285450 0.177663 0.951509 0.251131 
14.375520 5.252479 60.223190 0.204845 0.943665 0.259874 
14.416500 5.269278 60.170872 0.202114 0.954386 0.219766 
14.432220 5.265673 60.091801 0.387347 0.890130 0.240066 
14.474450 5.283485 60.040791 0.176176 0.919360 0.351765 
14.503650 5.290767 59.975979 0.252982 0.876471 0.409632 
14.554700 5.315709 59.934311 0.368466 0.866639 0.336406 
14.564420 5.307228 59.848789 0.244071 0.944423 0.220215 
14.610850 5.328432 59.802212 0.342657 0.913056 0.221169 
14.623580 5.322388 59.719841 0.344851 0.932591 0.106550 
14.645770 5.323982 59.647491 0.437796 0.898752 0.024064 
14.653270 5.313690 59.559490 0.161783 0.975813 0.147024 
14.694740 5.330872 59.507591 0.191352 0.949600 0.248283 
14.726500 5.340197 59.445351 0.275724 0.949679 0.148616 
14.736870 5.332218 59.360329 0.420294 0.862750 0.281096 
14.783200 5.353326 59.313580 0.410163 0.853693 0.320897 
14.796710 5.347878 59.231850 0.322286 0.841581 0.433444 
14.855530 5.379098 59.198421 0.357366 0.867229 0.346704 
14.863970 5.369530 59.111229 0.245087 0.939163 0.240637 
14.908850 5.389468 59.062920 0.381543 0.915992 0.124029 
14.910590 5.374465 58.968510 0.412342 0.910116 0.040771 
14.933890 5.376923 58.897110 0.513315 0.857939 0.021155 
14.938070 5.363887 58.805241 0.272845 0.898502 0.343874 
14.998930 5.396750 58.773960 0.233017 0.870866 0.432777 
15.030400 5.405814 58.711250 0.281734 0.903525 0.322906 
15.060560 5.413820 58.647129 0.300533 0.840704 0.450440 
15.115990 5.442287 58.610050 0.335286 0.869830 0.361910 
15.123040 5.431555 58.521130 0.463383 0.827311 0.317543 
15.170890 5.453887 58.475929 0.279929 0.846086 0.453628 
15.210520 5.469548 58.421902 0.190275 0.930233 0.313787 
15.236420 5.474083 58.353142 0.305682 0.924355 0.228310 
15.272910 5.487198 58.295731 0.227584 0.959529 0.165861 
15.284840 5.480399 58.211910 0.258910 0.953072 0.156903 
15.330830 5.501220 58.164688 0.236442 0.961011 0.143362 
15.328020 5.482453 58.064960 0.361718 0.926345 0.105097 
15.373820 5.503109 58.017509 0.218365 0.953820 0.206263 
15.380600 5.492119 57.928051 0.316979 0.919491 0.232510 
15.429260 5.515091 57.883659 0.377306 0.887759 0.263676 
15.434510 5.502848 57.792480 0.307648 0.927416 0.212726 
15.479170 5.522567 57.743759 0.337635 0.914581 0.222586 
15.490770 5.515461 57.659359 0.250904 0.946176 0.204444 
15.532890 5.533123 57.607891 0.361709 0.918226 0.161334 
15.539120 5.521652 57.517639 0.187999 0.965634 0.179465 
15.582470 5.540308 57.467480 0.206885 0.950746 0.230828 
15.607920 5.544429 57.397949 0.142039 0.975667 0.167032 
15.634970 5.549848 57.330132 0.214786 0.956607 0.196902 
15.672600 5.563858 57.273750 0.315085 0.945073 0.086938 
15.666930 5.542690 57.170471 0.488530 0.872399 0.016059 
15.698160 5.551490 57.107109 0.306192 0.940750 0.145725 
15.707010 5.542102 57.019470 0.522072 0.837272 0.162532 
15.747700 5.558583 56.966339 0.338366 0.901029 0.271395 
15.763130 5.554539 56.885792 0.480357 0.816815 0.319485 
15.809870 5.575930 56.839199 0.351912 0.855773 0.379223 
15.832000 5.577319 56.765869 0.330409 0.787771 0.519852 
15.888510 5.606658 56.729900 0.302948 0.731179 0.611228 
15.929570 5.623432 56.677132 0.167556 0.891007 0.421938 
15.963290 5.634236 56.616371 0.399908 0.863183 0.308202 
15.996100 5.644306 56.554619 0.351221 0.922770 0.158555 
16.004520 5.634533 56.466290 0.476740 0.876185 0.070845 
16.036329 5.643771 56.403400 0.367630 0.924946 0.096557 
16.036791 5.627510 56.306320 0.596964 0.795626 -0.103017 
16.044861 5.617438 56.217510 0.273215 0.949747 0.152758 
16.080891 5.630098 56.159149 0.278635 0.927991 0.247377 
16.114229 5.640574 56.097851 0.256436 0.950998 0.172753 
16.127550 5.634757 56.014671 0.352265 0.927029 0.128552 
16.164190 5.647911 55.956940 0.103729 0.964677 0.242153 
16.190531 5.652679 55.887939 0.107122 0.946667 0.303887 
16.245350 5.680630 55.850079 0.161377 0.961278 0.223386 
16.257271 5.673654 55.765270 0.172578 0.976353 0.130201 
16.292070 5.685305 55.705490 0.263291 0.955081 0.136006 
16.311300 5.684271 55.628632 0.102992 0.973479 0.204281 
16.351589 5.700383 55.574829 0.362974 0.920081 0.147312 
16.365141 5.694713 55.491699 0.183805 0.964455 0.189849 
16.401020 5.707232 55.433029 0.359247 0.916304 0.177001 
16.420330 5.706247 55.356171 0.238703 0.961078 0.139103 
16.445259 5.709838 55.285450 0.288469 0.945713 0.149707 
10.797940 4.355466 68.614311 -0.046440 0.934242 0.353603 
10.849920 4.381253 68.574112 0.130281 0.975943 0.174819 
10.863360 4.376319 68.495697 0.111390 0.985730 0.126212 
10.897320 4.387737 68.437607 0.168008 0.958551 0.230117 
10.932210 4.399893 68.380432 0.211489 0.958448 0.191441 
10.946880 4.395925 68.303162 0.382559 0.890947 0.244668 
10.983700 4.409623 68.247887 0.441915 0.867832 0.227108 
10.997950 4.405313 68.170158 0.418589 0.867083 0.270092 
11.034340 4.418661 68.114433 0.415224 0.856566 0.306405 
11.063490 4.426227 68.051483 0.302691 0.914819 0.267366 
11.090600 4.432166 67.986488 0.385295 0.872214 0.301316 
11.131330 4.448970 67.935051 0.435119 0.866161 0.245837 
11.142890 4.442501 67.854538 0.455378 0.831850 0.317264 
11.187940 4.462748 67.807404 0.376294 0.871700 0.313913 
11.200540 4.457092 67.727859 0.440254 0.851098 0.286021 
11.242580 4.474940 67.677696 0.437221 0.840073 0.321117 
11.258710 4.472096 67.601646 0.296894 0.933582 0.200696 
11.291800 4.482792 67.542526 0.316124 0.938584 0.138297 
11.304620 4.477291 67.463112 0.197050 0.972534 0.123891 
11.332820 4.484082 67.399071 0.360238 0.914603 0.183660 
11.362630 4.492149 67.336617 0.356803 0.907607 0.221228 
11.380120 4.490370 67.261810 0.427967 0.790339 0.438416 
11.433640 4.517375 67.223083 0.432140 0.813118 0.389992 
11.443560 4.509542 67.140663 0.443053 0.849865 0.285365 
11.490590 4.531360 67.095413 0.415154 0.890717 0.185122 
11.488130 4.513622 67.000504 0.318054 0.940786 0.117321 
11.525270 4.527533 66.945320 0.221788 0.929707 0.294031 
11.558860 4.538603 66.886574 0.166759 0.957091 0.236998 
11.583970 4.542897 66.819267 0.169665 0.952008 0.254744 
11.633620 4.566804 66.776649 0.115796 0.970205 0.212822 
11.643940 4.559258 66.694443 0.150350 0.981083 0.121945 
11.686680 4.577642 66.644852 0.229871 0.968652 0.094197 
11.683720 4.559468 66.549217 0.348401 0.930947 0.109337 
11.722400 4.574596 66.495506 0.233057 0.942582 0.239216 
11.742120 4.574555 66.422684 0.314547 0.934941 0.164152 
11.769510 4.580650 66.357567 0.418328 0.898449 0.133383 
11.785510 4.577622 66.280930 0.296801 0.932654 0.205098 
11.818130 4.587894 66.221046 0.224945 0.888826 0.399235 
11.872340 4.615442 66.182983 0.218130 0.919484 0.327060 
11.883240 4.608328 66.101143 0.273145 0.910709 0.309841 
11.941620 4.639206 66.067284 0.199755 0.947204 0.250804 
11.941380 4.623168 65.974129 0.168293 0.977256 0.129025 
11.986070 4.643090 65.926407 0.256904 0.961501 0.097554 
11.990950 4.631137 65.838379 0.226387 0.959320 0.168683 
12.032780 4.648771 65.787750 0.271026 0.922714 0.274125 
12.061880 4.656199 65.724213 0.263066 0.933760 0.242669 
12.086540 4.660076 65.656143 0.264758 0.825709 0.498104 
12.143750 4.690027 65.621109 0.514820 0.765477 0.386012 
12.149650 4.678866 65.533974 0.456343 0.839051 0.296219 
12.200160 4.703443 65.492126 0.378370 0.861962 0.337428 
12.215690 4.699990 65.414726 0.194243 0.945528 0.261239 
12.255380 4.715905 65.361893 0.353299 0.892894 0.279142 
12.287200 4.725499 65.301018 0.252064 0.944503 0.210659 
12.302920 4.722192 65.223747 0.255413 0.937384 0.236802 
12.352140 4.745733 65.180580 0.255240 0.948940 0.185381 
12.349880 4.727999 65.084953 0.334864 0.937978 0.089794 
12.388470 4.743015 65.030907 0.299021 0.948118 0.107977 
12.388460 4.727071 64.937500 0.362396 0.911172 0.196047 
12.433450 4.747211 64.889977 0.458329 0.847239 0.268554 
12.442640 4.738637 64.805893 0.403491 0.838010 0.367335 
12.493330 4.763357 64.764183 0.320682 0.788078 0.525449 
12.539260 4.784253 64.717613 0.291303 0.890894 0.348497 
12.553460 4.779683 64.638580 0.385214 0.876181 0.289685 
12.597150 4.798778 64.589699 0.350612 0.894023 0.278918 
12.610230 4.793311 64.509483 0.237983 0.945915 0.220475 
12.652770 4.811480 64.459412 0.329432 0.937313 0.113661 
12.646380 4.790370 64.359192 0.306685 0.947825 0.087022 
12.691870 4.810903 64.312119 0.240623 0.962388 0.126134 
12.698490 4.800227 64.225166 0.203258 0.951188 0.232223 
12.745310 4.821827 64.179451 0.289314 0.900283 0.325251 
12.774660 4.829393 64.115784 0.189889 0.935931 0.296606 
12.807570 4.839818 64.055763 0.313099 0.898596 0.307398 
12.846990 4.855474 64.002434 0.271127 0.944904 0.183427 
12.851520 4.843094 63.913200 0.161414 0.982550 0.092415 
12.895460 4.862377 63.864491 0.201611 0.976639 0.074358 
12.896900 4.847502 63.772011 0.158698 0.969158 0.188541 
12.945030 4.870149 63.727600 0.229505 0.951630 0.204273 
12.958700 4.865094 63.647671 0.177229 0.944471 0.276703 
13.009890 4.890197 63.606392 0.334099 0.912917 0.234435 
13.020830 4.882944 63.523609 0.236739 0.961544 0.139240 
13.049890 4.890249 63.459492 0.410068 0.899566 0.150417 
13.073520 4.893185 63.389740 0.345984 0.917502 0.196175 
13.096470 4.895575 63.319271 0.292014 0.847763 0.442748 
13.152430 4.924511 63.282909 0.415276 0.823748 0.385985 
13.164340 4.918013 63.201000 0.380356 0.848313 0.368368 
13.216380 4.943799 63.160591 0.431327 0.849049 0.305080 
13.224430 4.934185 63.074631 0.241888 0.947972 0.206979 
13.268080 4.953217 63.025520 0.304041 0.907459 0.289962 
13.297820 4.961050 62.961990 0.290644 0.915893 0.276886 
13.325520 4.967238 62.896332 0.277377 0.892264 0.356270 
13.366120 4.983810 62.844028 0.248839 0.933210 0.259228 
13.383180 4.981436 62.767311 0.219727 0.956770 0.190557 
13.423970 4.998152 62.715191 0.276019 0.955302 0.105884 
13.421250 4.979836 62.617870 0.269721 0.955720 0.117682 
13.461460 4.996084 62.565121 0.309984 0.931461 0.190502 
13.480050 4.994925 62.489880 0.339815 0.910091 0.237191 
13.516830 5.008407 62.433552 0.445217 0.860845 0.246430 
13.533650 5.005810 62.356430 0.395714 0.885927 0.241957 
13.568190 5.017479 62.297729 0.388300 0.870355 0.302829 
13.603710 5.029944 62.240051 0.372111 0.900959 0.223175 
13.615180 5.023023 62.157280 0.296959 0.880099 0.370462 
13.676130 5.055975 62.126099 0.196949 0.910668 0.363173 
13.687980 5.049353 62.043690 0.132940 0.977688 0.162646 
13.726610 5.064312 61.989201 0.189515 0.970896 0.146439 
13.747550 5.065007 61.916229 0.176843 0.983632 0.034553 
13.756360 5.055927 61.830570 0.387005 0.920518 -0.053600 
13.768500 5.049516 61.748341 0.200586 0.955358 0.216924 
13.813000 5.069200 61.699940 0.358942 0.900254 0.246379 
13.836220 5.071716 61.629261 0.188276 0.943630 0.272239 
13.868980 5.081932 61.568550 0.218393 0.855076 0.470265 
13.926350 5.111996 61.533619 0.257350 0.906039 0.335954 
13.934990 5.102743 61.447620 0.352988 0.920473 0.167717 
13.978630 5.121731 61.398289 0.320432 0.929952 0.180315 
13.977720 5.104759 61.302200 0.257118 0.950531 0.174299 
14.029260 5.130121 61.261150 0.246169 0.946006 0.210889 
14.036000 5.119311 61.173031 0.123360 0.987980 0.093153 
14.068310 5.129142 61.111752 0.238105 0.967204 0.088445 
14.085480 5.126753 61.034538 0.101835 0.980979 0.165254 
14.122720 5.140561 60.978420 0.266492 0.944986 0.189695 
14.147310 5.144145 60.908970 0.104194 0.965482 0.238724 
14.182600 5.156373 60.850769 0.217501 0.885700 0.410156 
14.231960 5.179966 60.807400 0.321181 0.869645 0.374914 
14.249410 5.177779 60.730370 0.309603 0.910347 0.274618 
14.290770 5.194904 60.678539 0.449322 0.881876 0.142847 
14.289020 5.177198 60.581219 0.288030 0.949133 0.127220 
14.330740 5.194616 60.529751 0.261003 0.936879 0.232669 
14.354570 5.197568 60.459370 0.243815 0.949934 0.195395 
14.382210 5.203591 60.393002 0.258978 0.931004 0.257219 
14.417120 5.215499 60.334301 0.204476 0.946166 0.250916 
14.444010 5.220916 60.267109 0.281817 0.921191 0.268303 
14.479550 5.233325 60.209049 0.351485 0.918135 0.182992 
14.490380 5.225747 60.124821 0.284697 0.913638 0.290195 
14.544280 5.253001 60.086189 0.324405 0.892681 0.312862 
14.554880 5.245233 60.001659 0.322221 0.875721 0.359564 
14.607440 5.271399 59.961609 0.333305 0.863294 0.378987 
14.636260 5.278358 59.896358 0.281365 0.922834 0.263080 
14.660570 5.281675 59.826321 0.493050 0.847791 0.195328 
14.689870 5.289017 59.761551 0.301115 0.929070 0.214847 
14.713460 5.291738 59.690701 0.377168 0.911431 0.164431 
14.745710 5.301464 59.629040 0.264175 0.950477 0.163726 
14.756250 5.293613 59.544258 0.403508 0.897318 0.178892 
14.794150 5.307909 59.488571 0.333158 0.929094 0.160592 
14.797960 5.294596 59.396568 0.361400 0.910922 0.199026 
14.840200 5.312400 59.345482 0.241728 0.919466 0.310081 
14.867480 5.318087 59.278431 0.117388 0.925715 0.359545 
14.916020 5.340989 59.234051 0.164627 0.897258 0.409666 
14.960410 5.360533 59.185242 0.163749 0.954285 0.250054 
14.973990 5.355118 59.103539 0.431923 0.901890 0.006125 
14.990280 5.351893 59.024700 0.228118 0.973443 0.019258 
15.001310 5.344391 58.940189 0.336695 0.940394 0.047907 
15.033550 5.354080 58.878342 0.168495 0.963855 0.206380 
15.054570 5.354673 58.804470 0.330394 0.893579 0.303902 
15.101680 5.376408 58.758511 0.191260 0.935068 0.298441 
15.117330 5.372636 58.678848 0.212023 0.910875 0.354052 
15.172370 5.400801 58.641380 0.293263 0.918508 0.265216 
15.184120 5.393864 58.557499 0.282060 0.924236 0.257352 
15.228250 5.413180 58.508320 0.243009 0.846391 0.473887 
15.273950 5.433767 58.460831 0.297289 0.868614 0.396395 
15.300440 5.438779 58.392719 0.479525 0.808438 0.341296 
15.341630 5.455702 58.340359 0.446178 0.839561 0.309940 
15.352590 5.448103 58.255520 0.315468 0.915856 0.248371 
15.394830 5.465884 58.204281 0.444323 0.884887 0.139827 
15.391140 5.446383 58.103611 0.372670 0.904505 0.207335 
15.439790 5.469356 58.059250 0.346417 0.911785 0.220553 
15.438760 5.452006 57.961369 0.345898 0.916726 0.199919 
15.482510 5.471003 57.911709 0.385382 0.886118 0.257441 
15.503760 5.471721 57.837780 0.246521 0.937071 0.247236 
15.538600 5.483480 57.778488 0.367890 0.906950 0.205181 
15.561540 5.485573 57.706348 0.250631 0.945979 0.205686 
15.589670 5.491876 57.639790 0.344646 0.909067 0.234130 
15.628440 5.506814 57.584702 0.181122 0.950355 0.253023 
15.649290 5.507193 57.510231 0.280370 0.927783 0.246194 
15.693580 5.526620 57.461102 0.189428 0.958238 0.214235 
15.702050 5.516932 57.373199 0.439525 0.887721 0.137003 
15.736390 5.528267 57.313271 0.415613 0.901591 0.119996 
15.736310 5.511622 57.216049 0.329053 0.940512 0.084630 
15.773220 5.525034 57.158859 0.323623 0.942696 0.081198 
15.770860 5.506526 57.059101 0.350064 0.930392 0.108750 
15.808040 5.520150 57.002159 0.389603 0.905841 0.166317 
15.819580 5.512928 56.917400 0.409245 0.861268 0.301223 
15.866080 5.534132 56.870560 0.384569 0.853764 0.350991 
15.883210 5.531447 56.791821 0.275951 0.854398 0.440289 
15.942020 5.562655 56.758339 0.080789 0.767213 0.636284 
16.000271 5.593416 56.724289 0.252666 0.853999 0.454803 
16.021311 5.593907 56.649750 0.325758 0.878694 0.348969 
16.071659 5.618238 56.607101 0.407534 0.889054 0.208565 
16.062679 5.594290 56.499828 0.416471 0.905023 0.086518 
16.099710 5.607774 56.442631 0.436617 0.897095 0.067726 
16.094049 5.586517 56.338902 0.430504 0.901035 0.052939 
16.133739 5.602163 56.284569 0.199144 0.965526 0.167635 
16.141939 5.592166 56.195869 0.317386 0.929557 0.187588 
16.186689 5.611928 56.147041 0.239106 0.948649 0.207106 
16.198009 5.604472 56.061699 0.203445 0.957363 0.205102 
