5.369498 5.352067 32.722252 0.313711 0.949512 -0.003383 
5.399308 5.359108 32.647758 0.274986 0.960202 0.048936 
5.405908 5.348108 32.545311 0.428320 0.896478 0.113442 
5.442316 5.360268 32.478710 0.155020 0.929115 0.335730 
5.481606 5.374667 32.415562 0.132589 0.867646 0.479177 
5.545108 5.407885 32.381592 0.162851 0.882847 0.440522 
5.572283 5.412863 32.303829 0.123976 0.926362 0.355645 
5.627078 5.439313 32.259361 0.296433 0.910582 0.288040 
5.646685 5.438401 32.172421 0.239913 0.951411 0.193025 
5.685029 5.452056 32.108089 0.385203 0.922682 0.016632 
5.665797 5.420927 31.974159 0.411155 0.902508 -0.128183 
5.682913 5.418060 31.884100 0.278248 0.960311 0.019538 
5.695427 5.411608 31.788441 0.285945 0.900724 0.327005 
5.756594 5.443005 31.751600 0.119573 0.863092 0.490687 
5.793056 5.455179 31.684879 0.205216 0.813367 0.544354 
5.853700 5.486172 31.647421 0.275050 0.837219 0.472664 
5.884133 5.493653 31.573370 0.277821 0.929454 0.242756 
5.916954 5.502988 31.502199 0.428234 0.894441 0.128808 
5.927546 5.495016 31.404030 0.238149 0.955078 0.176381 
5.973308 5.514420 31.348511 0.308269 0.947238 0.087813 
5.965442 5.492064 31.227859 0.279158 0.959847 -0.027651 
5.995125 5.498940 31.152769 0.305406 0.951515 -0.036698 
5.984552 5.474460 31.028709 0.339489 0.926485 0.162399 
6.040224 5.501570 30.985149 0.230742 0.920055 0.316635 
6.059319 5.500187 30.897091 0.248860 0.877860 0.409183 
6.122963 5.533508 30.863230 0.272010 0.904409 0.328717 
6.132169 5.524413 30.763090 0.348896 0.934274 0.073509 
6.162185 5.531528 30.688250 0.231371 0.967754 0.099599 
6.177534 5.527208 30.595510 0.161604 0.950981 0.263665 
6.238728 5.558619 30.558649 0.191413 0.939951 0.282583 
6.244457 5.546792 30.454109 0.304321 0.923804 0.232326 
6.301009 5.574582 30.411579 0.254880 0.952067 0.169129 
6.294084 5.552878 30.291519 0.373017 0.926935 0.040612 
6.332221 5.566305 30.226460 0.266915 0.953875 0.137400 
6.342843 5.558270 30.127741 0.359548 0.878669 0.314112 
6.400286 5.586750 30.086260 0.274232 0.904306 0.327152 
6.413694 5.580879 29.990879 0.295692 0.938729 0.177072 
6.458979 5.599873 29.934509 0.196316 0.959471 0.202178 
6.474058 5.595296 29.841110 0.255384 0.942120 0.217230 
6.526969 5.620238 29.794060 0.206900 0.937238 0.280672 
6.543454 5.616749 29.702330 0.220355 0.943523 0.247403 
6.600115 5.644616 29.659870 0.247598 0.949817 0.191160 
6.596140 5.625147 29.542959 0.443150 0.895103 -0.049085 
6.621050 5.628222 29.461479 0.312822 0.949808 -0.002763 
6.617742 5.609258 29.345280 0.457538 0.885949 0.075844 
6.653453 5.620757 29.277000 0.139004 0.894965 0.423929 
6.704465 5.644203 29.227530 0.048098 0.802214 0.595096 
6.780003 5.686807 29.208250 0.215531 0.899108 0.380987 
6.780263 5.670609 29.096300 0.227310 0.964442 0.134839 
6.834811 5.696817 29.051170 0.212476 0.963737 0.161447 
6.838251 5.683091 28.943050 0.329260 0.932670 0.147357 
6.886437 5.704325 28.890070 0.240253 0.944362 0.224630 
6.897304 5.696392 28.791031 0.425114 0.901292 0.083366 
6.927166 5.703299 28.715389 0.300059 0.947801 0.107881 
6.938972 5.696087 28.617430 0.493044 0.869500 -0.029635 
6.950563 5.688701 28.519159 0.232934 0.962310 0.140360 
6.985057 5.699217 28.449160 0.307644 0.909388 0.279943 
7.029369 5.717408 28.391279 0.118116 0.929926 0.348262 
7.062440 5.726807 28.319490 0.186969 0.928679 0.320310 
7.114188 5.750811 28.270809 0.149644 0.950867 0.271035 
7.134833 5.750484 28.183590 0.389430 0.902741 0.182766 
7.173398 5.764174 28.118549 0.320234 0.924460 0.206940 
7.185789 5.757380 28.021040 0.488139 0.871810 0.040830 
7.209579 5.759501 27.937630 0.251479 0.964769 0.077318 
7.225976 5.755831 27.845011 0.444390 0.893097 -0.069966 
7.222450 5.736560 27.727600 0.173969 0.951471 0.253845 
7.284796 5.768847 27.691990 0.101210 0.925072 0.366058 
7.322084 5.781518 27.625231 0.019936 0.922829 0.384694 
7.375467 5.806789 27.578489 0.164545 0.898325 0.407355 
7.419298 5.824581 27.519859 0.150532 0.952099 0.266172 
7.444523 5.827799 27.438049 0.272807 0.955334 0.113640 
7.474661 5.834863 27.362341 0.199796 0.974419 0.102905 
7.488286 5.828986 27.266020 0.465222 0.884745 0.028212 
7.510009 5.829447 27.179760 0.334752 0.935721 0.111207 
7.529657 5.828278 27.090870 0.473215 0.880908 0.008305 
7.536514 5.817080 26.985979 0.235910 0.956262 0.172943 
7.580630 5.835076 26.927570 0.322078 0.931633 0.168304 
7.593949 5.828931 26.830669 0.211140 0.911168 0.353825 
7.655454 5.860553 26.793970 0.198728 0.895813 0.397526 
7.690352 5.871318 26.724001 0.128249 0.952770 0.275285 
7.727043 5.883486 26.656260 0.408412 0.903299 0.131342 
7.740552 5.877472 26.559469 0.286062 0.916675 0.279063 
7.794741 5.903358 26.513611 0.269644 0.895982 0.352858 
7.824338 5.909954 26.436930 0.147403 0.921285 0.359870 
7.873472 5.931873 26.384720 0.381384 0.894372 0.233763 
7.888266 5.926850 26.289419 0.275842 0.955238 0.106917 
7.914193 5.930557 26.208071 0.487144 0.872486 -0.038191 
7.900790 5.903395 26.077280 0.276135 0.949149 0.151213 
7.960018 5.933225 26.037680 0.186027 0.954521 0.232990 
7.974561 5.927982 25.941919 0.153464 0.959770 0.235140 
8.023119 5.949437 25.888889 0.280368 0.934106 0.220996 
8.042358 5.947872 25.798969 0.251840 0.924533 0.286034 
8.091555 5.969825 25.746731 0.514157 0.834034 0.200078 
8.092402 5.953808 25.633591 0.434557 0.822506 0.366940 
8.151402 5.983457 25.593670 0.402912 0.841630 0.359611 
8.167203 5.979173 25.499300 0.192610 0.957201 0.216028 
8.216320 6.001057 25.446911 0.204638 0.968853 0.139457 
8.220907 5.987954 25.338320 0.161886 0.983451 0.081348 
8.263829 6.004966 25.278080 0.179389 0.977993 0.106529 
8.275401 5.997340 25.178230 0.123584 0.956781 0.263245 
8.341753 6.032761 25.147570 0.156367 0.956856 0.244901 
8.352329 6.024343 25.046391 0.221049 0.948710 0.226025 
8.402653 6.047165 24.995461 0.399331 0.897745 0.185980 
8.404869 6.032164 24.883631 0.427740 0.881429 0.200305 
8.452701 6.053023 24.829510 0.309109 0.894304 0.323532 
8.475263 6.054009 24.743370 0.397439 0.860793 0.317926 
8.523916 6.075511 24.690281 0.308784 0.914309 0.262091 
8.534303 6.066912 24.588640 0.329747 0.931472 0.153707 
8.579740 6.085881 24.531441 0.245727 0.949184 0.196644 
8.590037 6.077200 24.429621 0.221927 0.926644 0.303444 
8.654666 6.111266 24.396761 0.148627 0.956463 0.251175 
8.660653 6.099184 24.289391 0.353314 0.926971 0.126074 
8.703514 6.116117 24.228861 0.375576 0.920417 0.108517 
8.698280 6.095190 24.107121 0.514980 0.855121 0.059695 
8.734541 6.106919 24.038139 0.251799 0.924407 0.286477 
8.766642 6.115372 23.963850 0.368351 0.872962 0.319774 
8.809579 6.132354 23.903339 0.312538 0.904636 0.289747 
8.830710 6.132162 23.815020 0.500429 0.865266 0.029746 
8.843900 6.125709 23.716530 0.198391 0.976343 0.085999 
8.871397 6.130520 23.636250 0.377957 0.924492 0.049630 
8.884507 6.123993 23.537580 0.101708 0.956666 0.272848 
8.941000 6.151640 23.494280 0.080181 0.914147 0.397374 
8.989777 6.173210 23.441130 0.108509 0.939727 0.324250 
9.018718 6.179146 23.362619 0.431258 0.887454 0.162610 
9.044110 6.182281 23.279530 0.351397 0.914623 0.199963 
9.070161 6.185931 23.197260 0.628557 0.771136 0.101323 
9.089353 6.184169 23.106171 0.368250 0.868603 0.331543 
9.140063 6.207253 23.055441 0.472697 0.849343 0.234892 
9.139643 6.190017 22.939150 0.266694 0.948914 0.168629 
9.192164 6.214526 22.890699 0.304857 0.945517 0.114280 
9.186913 6.193465 22.768120 0.206093 0.955694 0.210179 
9.242849 6.220663 22.724030 0.195838 0.940668 0.277112 
9.268246 6.223767 22.640720 0.074592 0.932842 0.352479 
9.332489 6.257520 22.607300 0.247932 0.950214 0.188739 
9.330646 6.239123 22.488920 0.330796 0.932313 0.146173 
9.377453 6.259113 22.433069 0.181140 0.914150 0.362655 
3.919974 4.998842 36.864399 0.252105 0.896344 0.364707 
3.959063 5.013225 36.802029 0.401417 0.902669 0.155087 
3.960609 4.998588 36.695660 0.499969 0.839359 0.213324 
4.006855 5.018497 36.641628 0.385675 0.883120 0.267122 
4.015868 5.009621 36.543930 0.408528 0.884500 0.225309 
4.067970 5.034054 36.496750 0.229742 0.934217 0.272867 
4.077502 5.025569 36.399590 0.342268 0.929522 0.137267 
4.118825 5.041665 36.339741 0.276228 0.954644 0.111140 
4.116477 5.023982 36.228550 0.324711 0.943500 0.066113 
4.157395 5.039758 36.168171 0.229844 0.966192 0.116814 
4.163805 5.028837 36.067200 0.350335 0.921767 0.166166 
4.208391 5.047444 36.011101 0.232350 0.935619 0.265764 
4.231093 5.049119 35.929230 0.321785 0.892132 0.317103 
4.283891 5.074079 35.882790 0.303320 0.911874 0.276554 
4.288643 5.061855 35.779720 0.528981 0.848589 -0.008743 
4.310844 5.063129 35.697182 0.265598 0.958906 0.099788 
4.324977 5.058154 35.605091 0.272415 0.914506 0.299114 
4.382099 5.086455 35.563702 0.236819 0.906546 0.349416 
4.398967 5.083590 35.474781 0.349833 0.876835 0.329814 
4.455163 5.111173 35.432301 0.284645 0.900128 0.329769 
4.469865 5.106623 35.340771 0.302550 0.888951 0.343846 
4.525804 5.134007 35.297981 0.328419 0.864838 0.379732 
4.545466 5.133291 35.212269 0.260431 0.912114 0.316582 
4.596079 5.156548 35.163158 0.356000 0.908353 0.219452 
4.604390 5.147030 35.063961 0.174333 0.981839 0.074829 
4.635221 5.154955 34.991390 0.312761 0.949074 -0.037939 
4.622733 5.129307 34.867439 0.189427 0.980040 0.060321 
4.669953 5.149926 34.814251 0.211961 0.969423 0.123658 
4.676947 5.139362 34.713310 0.276538 0.894786 0.350550 
4.742062 5.173851 34.681351 0.256467 0.891095 0.374398 
4.758202 5.170370 34.591209 0.340236 0.914886 0.217310 
4.799625 5.186489 34.531101 0.383447 0.912979 0.139418 
4.800140 5.170882 34.422321 0.295590 0.954757 0.032652 
4.831564 5.179239 34.350269 0.165450 0.979106 0.118230 
4.850296 5.177748 34.263081 0.132373 0.962225 0.237908 
4.902608 5.202303 34.215858 0.170066 0.962986 0.209130 
4.914928 5.195831 34.120979 0.170087 0.948384 0.267652 
4.970638 5.223020 34.077789 0.340591 0.920551 0.191267 
4.975855 5.211028 33.974380 0.376293 0.870525 0.317159 
5.032259 5.238754 33.932011 0.439076 0.837107 0.326288 
5.041299 5.229718 33.833099 0.461178 0.831963 0.308468 
5.090261 5.251665 33.781830 0.468264 0.838594 0.278367 
5.099193 5.242535 33.682709 0.301646 0.926843 0.223545 
5.146121 5.262900 33.628990 0.292841 0.933488 0.206990 
5.160803 5.258225 33.536678 0.061728 0.975135 0.212841 
5.213963 5.283427 33.490391 0.164132 0.973644 0.158361 
5.225688 5.276447 33.394482 0.112971 0.977905 0.175894 
5.269921 5.294713 33.337479 0.334952 0.936576 0.103114 
5.271239 5.279637 33.229031 0.354743 0.903476 0.240602 
5.320084 5.301481 33.177528 0.444818 0.859035 0.253370 
5.331286 5.294074 33.080860 0.327466 0.852617 0.407199 
5.398593 5.330264 33.051498 0.224006 0.821240 0.524773 
5.439236 5.345731 32.990139 0.247382 0.935783 0.251223 
5.456555 5.343067 32.900730 0.474831 0.879449 -0.033235 
5.460364 5.329895 32.795040 0.282952 0.959090 0.009232 
5.481204 5.329956 32.709789 0.392433 0.917577 -0.063624 
5.472196 5.306802 32.588570 0.247746 0.957579 0.147189 
5.531747 5.336957 32.549850 0.144068 0.954785 0.260059 
5.548566 5.333877 32.459660 0.146608 0.918161 0.368084 
5.612962 5.367801 32.426781 0.121988 0.885506 0.448329 
5.654962 5.384304 32.366920 0.232245 0.906682 0.352121 
5.686474 5.392645 32.294380 0.511738 0.811889 0.280997 
5.722353 5.404383 32.227100 0.383559 0.862796 0.329342 
5.751760 5.411081 32.151989 0.570109 0.819547 0.057605 
5.751453 5.394649 32.040939 0.383012 0.922278 -0.052009 
5.763031 5.387460 31.944210 0.427341 0.901831 -0.063881 
5.764999 5.372783 31.835800 0.251676 0.924751 0.285472 
5.826408 5.404377 31.799280 0.222876 0.876594 0.426508 
5.853803 5.409488 31.721590 0.185891 0.861063 0.473303 
5.917549 5.442904 31.687910 0.285053 0.843478 0.455291 
5.947273 5.449825 31.613010 0.374086 0.886025 0.273897 
5.977486 5.457124 31.538679 0.465921 0.858446 0.214449 
6.009130 5.465534 31.466070 0.225210 0.933748 0.278199 
6.042349 5.475168 31.395350 0.416273 0.897841 0.143519 
6.064090 5.475856 31.310671 0.227152 0.972683 0.047842 
6.073251 5.466736 31.210661 0.440094 0.888392 -0.130678 
6.065314 5.444282 31.089830 0.210513 0.973453 0.089855 
6.107942 5.461233 31.030430 0.263882 0.940131 0.215684 
6.135597 5.466510 30.952801 0.132104 0.917487 0.375189 
6.190844 5.493296 30.908739 0.244736 0.917965 0.312161 
6.212537 5.493920 30.823820 0.165784 0.970750 0.173666 
6.250927 5.507559 30.759211 0.337316 0.939585 0.058286 
6.252870 5.492771 30.650141 0.252290 0.931140 0.263304 
6.310671 5.521544 30.609171 0.312517 0.889445 0.333499 
6.330901 5.521011 30.522350 0.229758 0.931519 0.281929 
6.376967 5.540629 30.467039 0.409777 0.894248 0.180011 
6.380904 5.527374 30.360250 0.288113 0.955263 0.066806 
6.410928 5.534469 30.285311 0.379784 0.924291 0.038095 
6.413428 5.520080 30.176670 0.210075 0.947212 0.242195 
6.471128 5.548767 30.135521 0.196534 0.941275 0.274545 
6.491034 5.547954 30.048120 0.204391 0.951491 0.229975 
6.535851 5.566584 29.991190 0.360464 0.917495 0.168132 
6.544811 5.557215 29.890320 0.309521 0.918092 0.247594 
6.592948 5.578434 29.837429 0.347718 0.884208 0.311880 
6.618733 5.582194 29.757120 0.279185 0.892591 0.354029 
6.666142 5.602842 29.703329 0.447202 0.869156 0.211136 
6.667503 5.587517 29.592979 0.450416 0.892511 0.023436 
6.691152 5.589597 29.509960 0.459112 0.888378 -0.001134 
6.690969 5.573051 29.397619 0.346160 0.928505 0.134358 
6.736684 5.592363 29.341660 0.139950 0.926691 0.348795 
6.770739 5.602562 29.271351 0.064709 0.842314 0.535089 
6.843270 5.642833 29.248390 0.173500 0.879387 0.443369 
6.870565 5.647745 29.169741 0.194929 0.956603 0.216596 
6.902635 5.656387 29.096951 0.464053 0.883146 0.068610 
6.907194 5.643516 28.990219 0.448384 0.863311 0.231618 
6.955418 5.664781 28.937290 0.454966 0.840067 0.295454 
6.966210 5.656772 28.838169 0.402542 0.894960 0.192371 
7.007892 5.672918 28.777149 0.378525 0.914497 0.142877 
7.006856 5.655645 28.663340 0.386920 0.918381 0.082877 
7.049331 5.672405 28.603251 0.298443 0.947084 0.118168 
7.046917 5.654040 28.487640 0.260058 0.936215 0.236372 
7.110634 5.687416 28.453791 0.036776 0.938840 0.342385 
7.139689 5.693667 28.377050 0.213648 0.921250 0.325044 
7.189751 5.716356 28.326300 0.341150 0.909941 0.235847 
7.191965 5.701591 28.216270 0.481160 0.847835 0.222848 
7.240634 5.723187 28.163759 0.408701 0.867162 0.284593 
7.253148 5.716473 28.066420 0.489720 0.853542 0.177875 
7.293034 5.731188 28.002991 0.342211 0.924064 0.170289 
7.294457 5.715778 27.891800 0.375928 0.925429 0.047526 
7.333471 5.729803 27.827250 0.103618 0.971839 0.211640 
7.359398 5.733574 27.746410 0.246027 0.924080 0.292484 
7.410733 5.757247 27.697149 0.196400 0.905729 0.375610 
7.438163 5.762190 27.618139 0.231412 0.877127 0.420829 
7.501274 5.795090 27.583530 0.217965 0.911611 0.348507 
7.513067 5.787773 27.485020 0.353756 0.920828 0.164110 
7.553154 5.802627 27.421721 0.412188 0.905228 0.103267 
7.549763 5.783397 27.304199 0.580903 0.812211 0.053533 
7.582100 5.792168 27.231190 0.499034 0.844596 0.193964 
7.600956 5.790365 27.141319 0.412284 0.892407 0.183387 
7.638440 5.803165 27.074680 0.229926 0.953151 0.196563 
7.656147 5.800452 26.983320 0.308823 0.943451 0.120537 
7.689893 5.810314 26.911970 0.071866 0.971958 0.223904 
7.721815 5.818742 26.838310 0.172813 0.927090 0.332627 
7.778740 5.846783 26.795919 0.190083 0.944494 0.267956 
7.787608 5.837118 26.693380 0.516442 0.853617 0.068013 
7.816887 5.843463 26.616350 0.250184 0.929122 0.272286 
7.850241 5.853003 26.544399 0.426782 0.827305 0.365272 
7.897981 5.873831 26.490471 0.262960 0.861493 0.434376 
7.929259 5.881737 26.415890 0.522819 0.806656 0.275621 
7.965493 5.893529 26.347500 0.387159 0.894345 0.224176 
7.981251 5.889244 26.253401 0.517525 0.855347 0.023425 
7.999409 5.886835 26.162260 0.138078 0.979398 0.147360 
8.030777 5.894796 26.087690 0.210754 0.952124 0.221457 
8.074335 5.912329 26.028419 0.084039 0.973883 0.210926 
8.095683 5.912413 25.941200 0.368742 0.925135 0.090299 
8.121024 5.915630 25.858980 0.325772 0.934766 0.141720 
8.139065 5.913105 25.767530 0.583755 0.807821 0.081587 
8.163839 5.915867 25.684530 0.308998 0.882111 0.355528 
8.211435 5.936561 25.630260 0.332970 0.828858 0.449583 
8.255704 5.954638 25.571791 0.169184 0.899502 0.402832 
8.295147 5.968922 25.507231 0.245325 0.929740 0.274589 
8.330741 5.980177 25.437799 0.149155 0.979220 0.137409 
8.345007 5.974660 25.341410 0.262358 0.963293 0.056872 
8.374966 5.981477 25.264811 0.042635 0.976807 0.209836 
8.412256 5.994057 25.197451 0.265085 0.952173 0.151980 
8.434882 5.995100 25.111530 0.187953 0.972265 0.139192 
8.461338 5.999151 25.030420 0.459534 0.887320 0.038610 
8.472262 5.990978 24.929609 0.290276 0.933192 0.211878 
8.517750 6.009994 24.872549 0.357275 0.902730 0.239651 
8.536823 6.008223 24.782000 0.214027 0.914919 0.342223 
8.596052 6.038050 24.742331 0.251138 0.936953 0.243001 
8.606681 6.029625 24.641010 0.232343 0.955536 0.181568 
8.650867 6.047609 24.582239 0.217596 0.947315 0.235047 
8.682318 6.055566 24.507290 -0.004169 0.948831 0.315757 
8.736683 6.081563 24.461439 0.341520 0.927610 0.151343 
8.737249 6.065194 24.347191 0.281045 0.956947 0.072570 
8.769119 6.073471 24.272699 0.398910 0.916984 0.003385 
8.764950 6.053355 24.152330 0.352380 0.930629 0.098787 
8.807604 6.070118 24.091499 0.317622 0.923693 0.214261 
8.825893 6.067682 23.999630 0.419076 0.843869 0.335052 
8.878981 6.092661 23.952061 0.315162 0.877419 0.361675 
8.897456 6.090364 23.860371 0.363945 0.912077 0.188839 
8.939654 6.106758 23.798901 0.248727 0.957084 0.148749 
8.945028 6.094124 23.690420 0.255310 0.958134 0.129598 
8.997093 6.118291 23.641510 0.090483 0.969808 0.226463 
9.013391 6.114258 23.546909 0.199377 0.937248 0.286034 
9.072434 6.143925 23.506901 0.164208 0.941617 0.293926 
9.086385 6.138032 23.409241 0.436311 0.885808 0.158038 
9.125957 6.152342 23.344311 0.392773 0.907569 0.148486 
9.124542 6.134318 23.226900 0.548943 0.834767 0.042722 
9.152876 6.139753 23.147520 0.377092 0.869721 0.318412 
9.191964 6.153671 23.081909 0.369677 0.861525 0.348013 
9.235946 6.171448 23.022551 0.171387 0.948722 0.265619 
9.258869 6.172604 22.936171 0.319906 0.930667 0.177537 
9.302097 6.189782 22.875820 0.087057 0.975010 0.204391 
9.322803 6.189180 22.786539 0.228461 0.952122 0.203149 
9.371473 6.210649 22.733150 0.055732 0.947083 0.316113 
9.401745 6.217592 22.656111 0.485599 0.871785 0.064690 
9.412601 6.209200 22.554070 0.267735 0.959087 0.092039 
9.438087 6.212353 22.470800 0.502377 0.864587 0.010315 
9.437776 6.195127 22.354300 0.202655 0.928901 0.309959 
9.496889 6.224834 22.314270 -0.046168 0.833590 0.550451 
3.983540 4.955904 36.903782 0.203187 0.927705 0.313174 
4.020829 4.968893 36.839310 0.475114 0.875371 0.089405 
4.022075 4.954003 36.732601 0.342787 0.908832 0.237742 
4.074600 4.978769 36.685940 0.411332 0.882249 0.229005 
4.079917 4.967018 36.583920 0.312192 0.896961 0.313044 
4.139307 4.997093 36.545300 0.337477 0.883558 0.324707 
4.151714 4.990817 36.451542 0.280785 0.935786 0.213221 
4.195094 5.008503 36.394119 0.274050 0.946111 0.172542 
4.208192 5.002753 36.301102 0.147320 0.985389 0.085476 
4.237921 5.009869 36.227589 0.298183 0.954383 0.015488 
4.242256 4.997325 36.124199 0.234316 0.963633 0.128481 
4.284596 5.014195 36.065479 0.308324 0.941120 0.138670 
4.290410 5.002784 35.963741 0.356468 0.878072 0.319251 
4.349425 5.032563 35.924629 0.433901 0.855482 0.282632 
4.345201 5.013368 35.810989 0.431997 0.889455 0.149155 
4.392770 5.034279 35.758369 0.256996 0.948357 0.185936 
4.398086 5.022460 35.655899 0.248910 0.936724 0.246154 
4.452170 5.048416 35.610939 0.277469 0.916867 0.286994 
4.467424 5.044287 35.520130 0.176456 0.941896 0.285823 
4.519133 5.068399 35.472370 0.299513 0.929220 0.216432 
4.533797 5.063806 35.380798 0.268771 0.911691 0.310775 
4.585132 5.087626 35.332581 0.311801 0.874887 0.370612 
4.617939 5.097087 35.262428 0.316244 0.880332 0.353561 
4.656432 5.110953 35.199001 0.411412 0.834102 0.367442 
4.698904 5.127903 35.140270 0.196574 0.944330 0.263817 
4.716361 5.125454 35.051880 0.348052 0.937021 0.029165 
4.737334 5.125727 34.967621 0.136705 0.989749 0.041323 
4.749817 5.119411 34.873260 0.366921 0.928142 -0.062619 
4.754739 5.107224 34.769890 0.145529 0.964552 0.220139 
4.808021 5.132544 34.723888 0.325696 0.916752 0.231272 
4.824656 5.129433 34.634361 0.259584 0.937801 0.230533 
4.866467 5.145852 34.574718 0.328472 0.928891 0.171080 
4.885576 5.144652 34.488060 0.124393 0.981022 0.148732 
4.923316 5.157907 34.423550 0.189286 0.974071 0.123921 
4.944606 5.158391 34.339439 0.060714 0.981464 0.181778 
4.985348 5.173972 34.278469 0.105750 0.971275 0.213171 
5.022609 5.186848 34.213329 0.130442 0.982849 0.130358 
5.034108 5.179719 34.117470 0.452958 0.891276 -0.021339 
5.046974 5.173647 34.023190 0.232496 0.951154 0.203107 
5.086626 5.188370 33.960850 0.471576 0.865528 0.168751 
5.103683 5.185543 33.871510 0.312685 0.902982 0.294706 
5.149503 5.205052 33.816502 0.399864 0.863245 0.308086 
5.180012 5.212667 33.743179 0.297947 0.903435 0.308273 
5.216625 5.225020 33.677139 0.255505 0.889748 0.378240 
5.267823 5.248706 33.628540 0.160930 0.925882 0.341824 
5.290899 5.250537 33.546280 0.279148 0.941535 0.188648 
5.329718 5.264599 33.482841 0.185606 0.969063 0.162688 
5.343030 5.258834 33.388828 0.438662 0.898510 -0.016002 
5.355703 5.252564 33.293999 0.257933 0.959266 0.115237 
5.385035 5.259242 33.219120 0.511943 0.849077 0.130316 
5.407504 5.260579 33.135971 0.285268 0.897902 0.335253 
5.447667 5.275671 33.074051 0.311689 0.776068 0.548241 
5.508714 5.307006 33.037201 0.375435 0.845019 0.380779 
5.515164 5.295875 32.934750 0.484977 0.869837 0.090449 
5.549067 5.306092 32.865250 0.238496 0.963360 0.122710 
5.560404 5.298750 32.768589 0.376211 0.925188 -0.049927 
5.570889 5.290738 32.670860 0.095123 0.990282 0.101457 
5.605478 5.301479 32.602112 0.142451 0.964826 0.220948 
5.649032 5.319193 32.544151 0.063690 0.963942 0.258379 
5.676931 5.324722 32.467312 0.293959 0.903628 0.311520 
5.723249 5.344585 32.412670 0.319002 0.909865 0.265298 
5.735087 5.337605 32.316399 0.535249 0.803008 0.262083 
5.780016 5.356383 32.260052 0.427169 0.824060 0.372090 
5.805370 5.359916 32.180050 0.575395 0.798894 0.175181 
5.833563 5.365657 32.103451 0.391117 0.915930 0.090004 
5.838295 5.353121 31.998461 0.478655 0.874736 -0.075669 
5.845306 5.342352 31.896170 0.186822 0.962501 0.196695 
5.891355 5.361989 31.841080 0.167736 0.912549 0.372986 
5.938828 5.382737 31.787720 0.079071 0.919895 0.384111 
5.973951 5.393859 31.719391 0.308255 0.878979 0.363834 
6.022098 5.415130 31.666830 0.335603 0.901824 0.272185 
6.034728 5.408718 31.571190 0.466148 0.837377 0.285493 
6.086977 5.433183 31.523590 0.406492 0.836485 0.367502 
6.102696 5.429170 31.431641 0.495275 0.813673 0.304366 
6.155091 5.453747 31.384211 0.348715 0.895533 0.276438 
6.152685 5.435591 31.270170 0.440983 0.896847 -0.034641 
6.176875 5.438168 31.188410 0.259156 0.965315 0.031718 
6.181543 5.425514 31.082870 0.363108 0.927892 0.084670 
6.217202 5.437028 31.015011 0.074724 0.942203 0.326605 
6.261793 5.455507 30.958000 0.184115 0.921446 0.342109 
6.307582 5.474921 30.902451 0.226607 0.950432 0.212905 
6.316377 5.465466 30.801790 0.516945 0.855453 -0.031106 
6.329159 5.459116 30.705950 0.268398 0.941257 0.204933 
6.367986 5.473087 30.641850 0.460960 0.842167 0.279768 
6.399599 5.481426 30.568930 0.337308 0.879197 0.336504 
6.435091 5.492791 30.500731 0.453577 0.855859 0.248544 
6.464924 5.499734 30.425591 0.279107 0.946615 0.161307 
6.483667 5.498014 30.336870 0.366783 0.926573 0.083258 
6.511576 5.503447 30.259331 0.072318 0.976853 0.201317 
6.546185 5.514110 30.189970 0.264996 0.948346 0.174405 
6.574885 5.520154 30.113350 0.180040 0.969233 0.167847 
6.598869 5.522511 30.030920 0.406955 0.909204 0.087956 
6.621593 5.523879 29.946930 0.274570 0.941201 0.196857 
6.653798 5.532650 29.874519 0.445129 0.864600 0.233082 
6.683644 5.539575 29.799210 0.282584 0.888388 0.361820 
6.727427 5.557389 29.740971 0.447408 0.868803 0.212151 
6.741662 5.552106 29.646450 0.331153 0.940283 0.078775 
6.764302 5.553387 29.562201 0.444709 0.895134 -0.031129 
6.762767 5.535762 29.448200 0.268753 0.948156 0.169623 
6.814291 5.559618 29.399410 0.124652 0.922012 0.366545 
6.854251 5.574431 29.336390 0.022204 0.895355 0.444799 
6.909419 5.601137 29.292080 0.162955 0.887572 0.430885 
6.951402 5.617530 29.231541 0.260850 0.937645 0.229738 
6.968481 5.614440 29.140301 0.618022 0.783933 -0.059142 
6.963100 5.593771 29.021320 0.418959 0.882694 0.212896 
7.009659 5.613735 28.966351 0.482964 0.832683 0.270897 
7.031920 5.614684 28.881390 0.356585 0.884369 0.301228 
7.074543 5.631564 28.821541 0.445780 0.878979 0.169341 
7.079177 5.618707 28.714741 0.253806 0.958333 0.131072 
7.118492 5.632992 28.650770 0.243624 0.957640 0.153537 
7.142918 5.635618 28.568371 -0.023666 0.971206 0.237063 
7.194664 5.659633 28.519739 0.179997 0.970448 0.160723 
7.206162 5.652128 28.421289 0.181933 0.954734 0.235338 
7.258771 5.676816 28.373711 0.332078 0.937526 0.103776 
7.255233 5.657523 28.256550 0.361327 0.916034 0.174141 
7.301153 5.676967 28.200661 0.440555 0.878912 0.182825 
7.306745 5.664814 28.094730 0.429968 0.848568 0.308318 
7.365553 5.694353 28.054800 0.370181 0.877850 0.303883 
7.368942 5.680462 27.946060 0.309466 0.936937 0.162420 
7.414350 5.699496 27.889469 0.269973 0.944161 0.188879 
7.423630 5.690210 27.787970 0.275460 0.923323 0.267575 
7.477524 5.715893 27.741899 0.164112 0.924104 0.345108 
7.507379 5.722728 27.665930 0.077919 0.910233 0.406698 
7.569305 5.754709 27.629860 0.236035 0.924652 0.298842 
7.588281 5.753009 27.540300 0.288937 0.945417 0.150674 
7.617378 5.759242 27.463329 0.494857 0.868850 -0.014694 
7.606447 5.734072 27.336420 0.640526 0.767537 0.024764 
7.634516 5.739487 27.258080 0.514058 0.826254 0.230324 
7.661066 5.743707 27.177830 0.364502 0.862785 0.350345 
7.710219 5.765660 27.125771 0.243759 0.917027 0.315662 
7.732255 5.766331 27.039829 0.136187 0.956607 0.257597 
7.788124 5.793552 26.996149 0.130599 0.969454 0.207614 
7.797339 5.784152 26.894131 0.173030 0.953381 0.247237 
7.854596 5.812461 26.852171 0.294967 0.937238 0.185956 
7.852077 5.793839 26.735399 0.334749 0.934283 0.122713 
7.898888 5.813942 26.680340 0.308788 0.936397 0.166767 
7.904175 5.801436 26.573240 0.414362 0.845887 0.335827 
7.964823 5.832403 26.535500 0.318939 0.854888 0.409200 
7.980753 5.828246 26.441681 0.484262 0.814134 0.320432 
8.030804 5.850888 26.390640 0.330629 0.895473 0.298014 
8.042163 5.843130 26.291019 0.315582 0.926310 0.205809 
8.096238 5.868931 26.245020 0.175759 0.956910 0.231153 
8.107493 5.861083 26.145201 0.151450 0.962433 0.225356 
8.165853 5.890249 26.104561 0.201068 0.961511 0.187267 
8.168103 5.875312 25.993349 0.369939 0.926786 0.064902 
8.202581 5.885702 25.922640 0.310338 0.947547 0.076453 
8.204554 5.870532 25.810970 0.498009 0.867007 0.016893 
8.228864 5.872918 25.727400 0.343630 0.900082 0.267901 
8.265753 5.885192 25.659651 0.304802 0.825093 0.475728 
8.321663 5.912426 25.615870 0.152317 0.856960 0.492362 
8.360556 5.926273 25.550631 0.209091 0.880385 0.425681 
8.416260 5.953345 25.506611 0.157108 0.944082 0.289873 
8.429950 5.947361 25.409510 0.240295 0.958552 0.153089 
8.474779 5.965875 25.351730 0.207086 0.953234 0.220139 
8.493891 5.964147 25.261419 0.320351 0.926562 0.197125 
8.538044 5.982123 25.202749 0.279669 0.945506 0.166742 
8.539046 5.966132 25.089460 0.388740 0.921064 -0.022858 
8.560605 5.966315 25.002140 0.202686 0.972876 0.111490 
8.585834 5.969382 24.919439 0.251871 0.943157 0.216833 
8.632326 5.989190 24.863661 0.015930 0.950988 0.308816 
8.667059 5.999735 24.792959 0.296034 0.928925 0.222401 
8.705247 6.013000 24.726629 0.153465 0.967869 0.199192 
8.725322 6.011993 24.637280 0.247749 0.938037 0.242296 
8.778040 6.036700 24.589371 0.225542 0.922722 0.312594 
8.795540 6.033657 24.496700 0.433707 0.878976 0.198242 
8.841300 6.052878 24.439920 0.235149 0.947176 0.218089 
8.854297 6.046277 24.341459 0.496479 0.864431 -0.079166 
8.851524 6.027239 24.222879 0.249601 0.968203 0.016783 
8.878421 6.031581 24.142010 0.394881 0.918377 0.025561 
8.884607 6.019590 24.034731 0.292026 0.906735 0.304225 
8.945339 6.050600 23.996929 0.280592 0.898922 0.336462 
8.965484 6.049605 23.907370 0.253908 0.924285 0.285006 
9.015405 6.072089 23.855780 0.313213 0.929507 0.194716 
9.023572 6.061639 23.750879 0.137180 0.969178 0.204633 
9.078123 6.087773 23.705170 0.196228 0.962830 0.185614 
9.091311 6.081273 23.606609 0.111389 0.958475 0.262523 
9.150434 6.111012 23.566730 0.263565 0.950206 0.166260 
9.146863 6.091277 23.446671 0.343059 0.927764 0.146847 
9.193422 6.111097 23.390699 0.359791 0.924103 0.128777 
9.197545 6.097421 23.280380 0.463759 0.885595 0.025470 
9.221122 6.099092 23.194929 0.275409 0.935677 0.220584 
9.257404 6.110792 23.125731 0.218340 0.891436 0.397076 
9.312250 6.137146 23.080330 0.256829 0.911080 0.322448 
9.328559 6.133069 22.985479 0.272213 0.913982 0.300895 
9.386280 6.161693 22.943750 0.322901 0.902433 0.285218 
9.391641 6.148959 22.834780 0.294060 0.908483 0.296964 
9.454572 6.181698 22.799740 0.254928 0.907219 0.334613 
9.461106 6.169879 22.692200 0.407404 0.898130 0.165483 
9.510617 6.192013 22.639891 0.337635 0.926313 0.167173 
9.506744 6.171958 22.518881 0.569451 0.815679 -0.101946 
9.514301 6.160927 22.412510 0.329393 0.939347 0.095540 
4.072217 4.932422 36.972569 0.316686 0.938897 0.134840 
4.086613 4.927693 36.881310 0.455256 0.889878 0.029314 
4.104650 4.925778 36.794281 0.222111 0.964101 0.145522 
4.132058 4.931110 36.718201 0.418798 0.900404 0.117819 
4.154803 4.932829 36.636631 0.224043 0.931869 0.285350 
4.196967 4.949577 36.577820 0.378065 0.871022 0.313669 
4.230983 4.960016 36.509430 0.199611 0.925958 0.320559 
4.269451 4.973899 36.446259 0.254604 0.912978 0.318822 
4.313233 4.991898 36.389332 0.176477 0.965566 0.191147 
4.320439 4.981565 36.289371 0.351483 0.934977 -0.047723 
4.333296 4.975604 36.196018 0.168110 0.983473 0.067233 
4.359785 4.980197 36.118671 0.433276 0.901179 -0.012180 
4.361577 4.965652 36.012211 0.274121 0.941004 0.198417 
4.406004 4.984135 35.955929 0.407713 0.894934 0.181282 
4.420520 4.979438 35.864380 0.177032 0.957038 0.229649 
4.468912 5.000990 35.812759 0.342804 0.925378 0.161741 
4.478944 4.992808 35.715858 0.268355 0.940400 0.208888 
4.521885 5.010132 35.657780 0.078714 0.919603 0.384882 
4.578135 5.037772 35.615410 0.072580 0.965569 0.249816 
4.591351 5.032047 35.522190 0.313046 0.946531 0.077984 
4.622132 5.039937 35.449699 0.129654 0.975685 0.176714 
4.647446 5.043584 35.370720 0.434948 0.876835 0.204890 
4.681618 5.054098 35.302200 0.429362 0.855122 0.290542 
4.706714 5.057568 35.222919 0.379168 0.776834 0.502753 
4.775760 5.095132 35.195679 0.381073 0.793320 0.474792 
4.787186 5.087992 35.100159 0.446055 0.864301 0.232420 
4.833869 5.108204 35.046410 0.287627 0.934603 0.209254 
4.833162 5.091639 34.936420 0.392883 0.919499 0.012871 
4.865208 5.100486 34.865269 0.275866 0.955377 0.105607 
4.871485 5.089328 34.763481 0.401610 0.898290 0.178282 
4.921594 5.112191 34.713741 0.211962 0.935152 0.283837 
4.936338 5.107595 34.621948 0.292180 0.929575 0.224769 
4.989163 5.132565 34.575420 0.222006 0.941501 0.253554 
4.998714 5.123929 34.477390 0.291027 0.937853 0.189035 
5.050183 5.147842 34.429230 0.225931 0.935638 0.271177 
5.065228 5.143464 34.337681 0.263196 0.937978 0.225667 
5.112640 5.164224 34.284679 0.271389 0.946099 0.176764 
5.114912 5.149913 34.177830 0.359832 0.931128 0.059342 
5.151943 5.162602 34.112411 0.187626 0.977351 0.097887 
5.150578 5.145452 34.001129 0.376749 0.924807 0.052848 
5.188510 5.158835 33.936729 0.234924 0.954300 0.184721 
5.205394 5.155855 33.847172 0.479112 0.852660 0.208383 
5.243427 5.169311 33.782860 0.342449 0.878849 0.332194 
5.273887 5.176877 33.709469 0.325796 0.807828 0.491194 
5.334843 5.208153 33.672569 0.296675 0.822901 0.484581 
5.360748 5.212174 33.593700 0.355510 0.868361 0.345777 
5.408432 5.233129 33.540901 0.333015 0.908153 0.253691 
5.414665 5.221843 33.438419 0.378390 0.924576 0.044504 
5.442916 5.227677 33.362289 0.366492 0.930319 0.013773 
5.436691 5.206685 33.244770 0.497641 0.857403 0.131196 
5.482377 5.226075 33.189499 0.254943 0.911930 0.321538 
5.507353 5.229349 33.109348 0.317474 0.828412 0.461458 
5.566337 5.259086 33.070042 0.313424 0.860198 0.402274 
5.583883 5.256571 32.980930 0.288644 0.924998 0.247110 
5.632278 5.278066 32.928879 0.272517 0.941341 0.199029 
5.639637 5.267612 32.827450 0.224211 0.969995 0.094015 
5.682595 5.284869 32.768829 0.172662 0.980106 0.097876 
5.687283 5.272324 32.664108 0.199703 0.966681 0.160146 
5.737816 5.295475 32.614590 0.178331 0.963335 0.200457 
5.748093 5.287272 32.516521 0.244895 0.942620 0.226925 
5.799850 5.311374 32.468460 0.387063 0.905085 0.176076 
5.797238 5.293120 32.354771 0.517087 0.833103 0.196369 
5.841823 5.311631 32.298019 0.459204 0.827825 0.322238 
5.859025 5.308802 32.208172 0.465673 0.839001 0.281470 
5.904477 5.327985 32.152439 0.315160 0.926374 0.206167 
5.909283 5.315487 32.047550 0.284796 0.957614 0.043204 
5.944528 5.326708 31.979429 0.100887 0.987428 0.121690 
5.962468 5.324436 31.890350 0.137979 0.948397 0.285490 
6.025097 5.357002 31.855370 0.087488 0.948550 0.304299 
6.042797 5.354537 31.765949 0.316600 0.913889 0.254108 
6.087958 5.373481 31.709789 0.410711 0.890513 0.195712 
6.090513 5.359195 31.601940 0.497489 0.825864 0.265432 
6.137367 5.379455 31.547800 0.476886 0.823099 0.308364 
6.149985 5.373006 31.452089 0.365027 0.828252 0.425151 
6.214987 5.407423 31.419979 0.387293 0.863347 0.323476 
6.219070 5.394307 31.313829 0.391519 0.914565 0.101407 
6.254165 5.405383 31.245350 0.312943 0.946946 0.073211 
6.255913 5.390431 31.136271 0.223917 0.961595 0.158735 
6.310975 5.417087 31.092039 0.156781 0.952794 0.260006 
6.326889 5.413182 31.000139 0.260118 0.917857 0.299794 
6.382612 5.440352 30.956711 0.230362 0.946825 0.224626 
6.384935 5.425827 30.848181 0.402880 0.914780 0.029417 
6.415936 5.433689 30.774570 0.357998 0.929099 0.092808 
6.423024 5.422871 30.671761 0.507720 0.833445 0.218152 
6.468858 5.442311 30.616211 0.333554 0.870332 0.362305 
6.494516 5.445988 30.536011 0.388222 0.856284 0.340677 
6.544045 5.468313 30.484961 0.291884 0.916380 0.273954 
6.554487 5.460094 30.386110 0.261040 0.940385 0.218022 
6.610229 5.487271 30.342640 0.150177 0.957495 0.246271 
6.619361 5.478020 30.242121 0.208241 0.962561 0.173530 
6.672379 5.503065 30.195299 0.207411 0.966061 0.153974 
6.673505 5.487545 30.084900 0.455414 0.889686 0.032504 
6.703136 5.494302 30.009380 0.327671 0.936116 0.127744 
6.714965 5.487137 29.912010 0.431814 0.877903 0.206937 
6.760394 5.506240 29.855829 0.251727 0.901506 0.352024 
6.788207 5.511565 29.778009 0.416095 0.868920 0.268033 
6.830212 5.527988 29.717600 0.279793 0.940878 0.190959 
6.837069 5.516913 29.613991 0.459362 0.887065 -0.045852 
6.850219 5.510756 29.518061 0.148364 0.980686 0.127451 
6.884960 5.521485 29.448650 0.100465 0.943759 0.315000 
6.939019 5.547329 29.403000 -0.033639 0.929343 0.367682 
6.977624 5.561080 29.338329 0.196103 0.913184 0.357266 
7.027049 5.583297 29.286970 0.359438 0.912481 0.195404 
7.022214 5.563039 29.168730 0.559345 0.828909 -0.006551 
7.052274 5.570090 29.093460 0.335093 0.932552 0.134382 
7.064857 5.563455 28.996599 0.494893 0.853066 0.165405 
7.101789 5.575880 28.929750 0.229700 0.917153 0.325680 
7.137356 5.587233 28.861200 0.235156 0.926351 0.294238 
7.185035 5.608071 28.807610 0.116483 0.971676 0.205614 
7.199814 5.603137 28.713341 0.114765 0.975589 0.187228 
7.257812 5.632057 28.672489 0.041707 0.970963 0.235566 
7.274427 5.628553 28.580429 0.190951 0.965763 0.175610 
7.327050 5.653261 28.532921 0.152905 0.970856 0.184548 
7.330068 5.639091 28.423950 0.476805 0.876593 -0.065129 
7.343618 5.633169 28.327990 0.226259 0.971183 0.074909 
7.367350 5.635222 28.244610 0.531057 0.847322 -0.004967 
7.372222 5.622484 28.137791 0.274467 0.923582 0.267700 
7.424079 5.646580 28.089251 0.343749 0.898786 0.272068 
7.446898 5.647904 28.004650 0.143680 0.961115 0.235827 
7.490005 5.665135 27.945221 0.236272 0.956153 0.173051 
7.511991 5.665798 27.859529 0.077563 0.970836 0.226853 
7.559472 5.686457 27.805519 0.054536 0.943483 0.326903 
7.606891 5.707067 27.751419 0.079897 0.948260 0.307277 
7.637447 5.714446 27.676340 0.305672 0.922554 0.235496 
7.675941 5.728050 27.611111 0.222292 0.959542 0.172817 
7.690869 5.723156 27.516500 0.549421 0.822682 -0.146048 
7.663846 5.685328 27.369530 0.452078 0.891763 0.019613 
7.702374 5.698944 27.304251 0.311389 0.928081 0.204212 
7.724883 5.699982 27.218969 0.182691 0.917116 0.354291 
7.785574 5.730997 27.181330 0.121701 0.923986 0.362546 
7.817602 5.739503 27.107901 0.060784 0.944588 0.322581 
7.868555 5.762871 27.058100 0.263531 0.936824 0.230029 
7.888453 5.761846 26.969460 0.161414 0.968277 0.190748 
7.924717 5.773673 26.901270 0.381658 0.917182 0.114519 
7.940095 5.769087 26.806910 0.185864 0.976584 0.108340 
7.968320 5.774590 26.728600 0.398725 0.916984 0.012559 
7.971336 5.760279 26.618670 0.227986 0.939428 0.255926 
8.028102 5.788204 26.576080 0.250518 0.932861 0.258865 
8.042479 5.782811 26.480320 0.203741 0.925559 0.319108 
8.105395 5.815569 26.445440 0.212996 0.940130 0.266059 
8.119248 5.809756 26.348970 0.176015 0.954475 0.240824 
8.170115 5.833041 26.298960 0.305193 0.910879 0.277772 
8.198424 5.838587 26.220591 0.189721 0.936676 0.294355 
8.239198 5.853931 26.157869 0.426755 0.892158 0.148104 
8.246329 5.842812 26.052811 0.260463 0.958355 0.117113 
8.284416 5.856038 25.986670 0.375323 0.926559 0.024939 
8.274842 5.831762 25.860479 0.350026 0.936738 0.001684 
8.306812 5.840166 25.786570 0.271552 0.950326 0.152122 
8.330264 5.841863 25.701900 0.252381 0.867287 0.429089 
8.396721 5.877403 25.671450 0.153103 0.851959 0.500725 
8.425223 5.883070 25.593109 0.123596 0.881082 0.456529 
8.496056 5.922057 25.568211 0.306936 0.892552 0.330364 
8.501099 5.909250 25.460211 0.400699 0.895504 0.193684 
8.544112 5.926334 25.400150 0.487362 0.847284 0.211161 
8.552509 5.916155 25.296301 0.430842 0.846613 0.312444 
8.606680 5.942021 25.250320 0.372424 0.874182 0.311620 
8.619207 5.935086 25.151630 0.391766 0.912348 0.118918 
8.653303 5.945135 25.080210 0.289948 0.949614 0.119008 
8.661349 5.934657 24.975760 0.153920 0.957448 0.244136 
8.726089 5.968844 24.943140 0.184951 0.948528 0.257075 
8.730815 5.955740 24.834400 0.262807 0.937245 0.229137 
8.790064 5.985600 24.794821 0.255453 0.943172 0.212533 
8.792378 5.970583 24.682940 0.372838 0.895901 0.241564 
8.843714 5.994204 24.633289 0.423716 0.855200 0.298493 
8.856934 5.987772 24.535191 0.439563 0.839098 0.320466 
8.908655 6.011694 24.486010 0.419291 0.856419 0.301232 
8.915181 5.999974 24.379320 0.351850 0.931304 0.094204 
8.956869 6.015979 24.317341 0.265614 0.961372 0.072199 
8.957527 5.999617 24.203100 0.453557 0.889642 -0.053126 
8.974072 5.995779 24.109030 0.173609 0.970448 0.167605 
9.009736 6.007020 24.039301 0.288076 0.925501 0.245885 
9.046843 6.019397 23.971399 0.117182 0.950808 0.286763 
9.083696 6.031574 23.903151 0.230669 0.932880 0.276634 
9.130298 6.051441 23.847340 0.122654 0.957016 0.262825 
9.153620 6.052930 23.761780 0.314818 0.932525 0.176880 
9.193012 6.067103 23.696720 0.202835 0.940010 0.274297 
9.223182 6.073991 23.619860 0.426799 0.893119 0.142062 
9.245468 6.074651 23.532890 0.240289 0.964949 0.105516 
9.264987 6.073120 23.442350 0.494125 0.868956 -0.027498 
9.266967 6.057730 23.329300 0.255004 0.962458 0.092991 
9.310637 6.075265 23.269609 0.194826 0.971564 0.134562 
9.324019 6.068870 23.171080 0.207527 0.933851 0.291300 
9.381811 6.097557 23.129471 0.254607 0.929901 0.265441 
9.396548 6.092223 23.032619 0.421128 0.852929 0.308485 
9.445623 6.114021 22.979811 0.519861 0.790748 0.323207 
9.459734 6.108182 22.882090 0.364291 0.833620 0.415174 
9.520507 6.139224 22.844290 0.389009 0.830796 0.398058 
9.529970 6.129701 22.740530 0.390656 0.895687 0.212444 
9.570569 6.144791 22.676769 0.461106 0.876137 0.140587 
9.572761 6.129506 22.563560 0.418411 0.904547 0.082015 
9.613899 6.145015 22.500460 0.188695 0.962492 0.194944 
9.628817 6.139782 22.403549 0.043051 0.951034 0.306073 
9.690374 6.171439 22.366720 -0.083938 0.879961 0.467572 
4.159517 4.892035 36.931671 0.194610 0.935620 0.294521 
4.200462 4.907848 36.871498 0.215806 0.964763 0.150532 
4.207145 4.897123 36.771149 0.379303 0.923225 0.061521 
4.238119 4.905207 36.699249 0.224413 0.959286 0.171493 
4.257538 4.904336 36.613762 0.372967 0.886567 0.273667 
4.306671 4.926482 36.563141 0.325393 0.877564 0.352136 
4.327672 4.926830 36.479469 0.318745 0.841622 0.435974 
4.393559 4.961957 36.448528 0.293344 0.874220 0.386895 
4.402479 4.952936 36.350609 0.310445 0.946188 0.091387 
4.436534 4.963392 36.282219 0.330609 0.943523 0.021489 
4.425759 4.939092 36.161030 0.423019 0.905945 -0.017860 
4.458813 4.948763 36.091400 0.166004 0.977505 0.130100 
4.474240 4.944764 36.000980 0.303677 0.940695 0.151237 
4.517406 4.962268 35.943230 0.192883 0.961790 0.194308 
4.529310 4.955529 35.848591 0.521985 0.850577 0.063637 
4.555715 4.960029 35.771019 0.170901 0.943430 0.284135 
4.599507 4.978014 35.713970 0.075541 0.878304 0.472097 
4.661180 5.009868 35.678028 0.253911 0.896608 0.362800 
4.674334 5.004081 35.584759 0.133736 0.976214 0.170650 
4.721859 5.024959 35.532101 0.274332 0.960404 0.048648 
4.708253 4.998396 35.407089 0.438128 0.896362 0.067661 
4.746321 5.011928 35.343189 0.344432 0.919531 0.189284 
4.760958 5.007271 35.251530 0.460866 0.759664 0.458816 
4.821107 5.037940 35.213760 0.469177 0.730207 0.496660 
4.838765 5.035620 35.125629 0.383079 0.811509 0.441252 
4.902538 5.069104 35.092159 0.363231 0.874091 0.322533 
4.896824 5.048627 34.976250 0.438671 0.893415 0.096838 
4.935144 5.062342 34.912552 0.399120 0.910641 0.106943 
4.933829 5.045267 34.801750 0.337168 0.907114 0.251915 
4.990896 5.073538 34.760300 0.241404 0.923391 0.298451 
5.003074 5.066935 34.665470 0.258181 0.925792 0.276137 
5.055229 5.091389 34.618160 0.306093 0.922612 0.234723 
5.064745 5.082707 34.520100 0.315979 0.915491 0.249067 
5.112673 5.103874 34.467739 0.357384 0.888793 0.286921 
5.133837 5.104237 34.383492 0.303076 0.895606 0.325631 
5.183574 5.126806 34.333271 0.415307 0.885458 0.208527 
5.180988 5.108698 34.220638 0.273838 0.938934 0.208365 
5.241644 5.139754 34.183430 0.311316 0.932257 0.184336 
5.233568 5.117364 34.064159 0.275645 0.960564 0.036566 
5.268351 5.128296 33.996021 0.304566 0.950693 0.058500 
5.270265 5.113661 33.888592 0.339113 0.928976 0.148344 
5.314496 5.131936 33.831699 0.248331 0.941486 0.227895 
5.331032 5.128663 33.741669 0.331836 0.847224 0.414844 
5.392663 5.160471 33.705582 0.381592 0.789509 0.480691 
5.416996 5.163260 33.624840 0.327720 0.829194 0.452811 
5.475732 5.192818 33.585300 0.403348 0.835469 0.373230 
5.493382 5.190397 33.496510 0.412504 0.900674 0.136482 
5.517881 5.193305 33.415901 0.504327 0.863224 -0.022332 
5.506928 5.168608 33.292721 0.317986 0.939615 0.126528 
5.554220 5.189250 33.239399 0.246281 0.941766 0.228958 
5.570640 5.185852 33.148991 0.156421 0.919058 0.361752 
5.636401 5.220874 33.117840 0.209003 0.923825 0.320727 
5.657227 5.220901 33.032681 0.223173 0.934958 0.275766 
5.703243 5.240545 32.977791 0.311076 0.918623 0.243647 
5.726110 5.242155 32.895039 0.158756 0.969180 0.188381 
5.760943 5.253083 32.826672 0.363025 0.928464 0.078528 
5.771254 5.244901 32.728729 0.170424 0.967355 0.187561 
5.817824 5.264969 32.674461 0.345011 0.923058 0.170092 
5.830867 5.258906 32.579750 0.280529 0.949905 0.137783 
5.859071 5.264655 32.503288 0.503208 0.864114 0.009450 
5.855340 5.245503 32.388248 0.406647 0.896053 0.178121 
5.900816 5.264709 32.332588 0.353842 0.893857 0.275347 
5.923378 5.266046 32.249229 0.190438 0.916636 0.351442 
5.982965 5.296252 32.210609 0.183490 0.938143 0.293632 
6.003826 5.296257 32.125149 0.080155 0.985456 0.149841 
6.041947 5.309720 32.060551 0.248515 0.966590 0.062802 
6.050383 5.300023 31.959990 0.100423 0.968203 0.229126 
6.107612 5.328388 31.918489 0.258369 0.942675 0.211210 
6.114578 5.317534 31.816080 0.256053 0.952386 0.165522 
6.156636 5.334059 31.756180 0.355505 0.930469 0.088562 
6.155661 5.316997 31.644060 0.265720 0.947414 0.178325 
6.206370 5.340268 31.594620 0.261674 0.932789 0.247855 
6.231248 5.343374 31.513800 0.214001 0.927364 0.306918 
6.274008 5.360437 31.454691 0.369218 0.891266 0.263294 
6.299028 5.363647 31.374001 0.162237 0.964966 0.206206 
6.337064 5.377019 31.309120 0.354448 0.933050 0.061522 
6.340640 5.363474 31.202290 0.189298 0.969907 0.153124 
6.385387 5.382081 31.145531 0.303735 0.930994 0.202473 
6.406256 5.382032 31.059681 0.084904 0.949097 0.303325 
6.463438 5.410349 31.018049 0.314893 0.936733 0.152886 
6.461549 5.392513 30.904400 0.305054 0.952326 0.004057 
6.484957 5.394436 30.821550 0.406810 0.913080 -0.028130 
6.483457 5.376888 30.708269 0.344040 0.919186 0.191660 
6.533264 5.399433 30.657591 0.289779 0.913118 0.286781 
6.554510 5.399652 30.572001 0.232163 0.899694 0.369662 
6.613792 5.429604 30.532890 0.235429 0.928898 0.285869 
6.627745 5.424115 30.438339 0.131030 0.949697 0.284442 
6.687671 5.454570 30.400009 0.219135 0.940947 0.258067 
6.706731 5.453065 30.311661 0.164348 0.965606 0.201483 
6.746090 5.467434 30.248140 0.424892 0.904007 0.047314 
6.737359 5.444182 30.125669 0.313891 0.946290 0.077509 
6.780846 5.461772 30.067160 0.299459 0.951489 0.070656 
6.778076 5.443169 29.951900 0.339024 0.920467 0.194431 
6.830184 5.467499 29.903919 0.227129 0.932824 0.279736 
6.846553 5.463860 29.812071 0.285537 0.906034 0.312363 
6.904228 5.492546 29.770929 0.246991 0.938564 0.241025 
6.909400 5.480134 29.665251 0.252262 0.960543 0.117136 
6.958552 5.502146 29.613609 0.180110 0.967864 0.175496 
6.971259 5.495622 29.517130 0.079833 0.955580 0.283713 
7.040564 5.533412 29.490280 0.231970 0.918395 0.320531 
7.046654 5.521698 29.385599 0.315955 0.917788 0.240496 
7.096459 5.544217 29.334730 0.375808 0.913749 0.154375 
7.088836 5.521749 29.213051 0.464495 0.884423 0.045173 
7.122470 5.531594 29.142210 0.402935 0.906856 0.123514 
7.132071 5.522606 29.041679 0.339096 0.912434 0.229082 
7.183458 5.546354 28.992689 0.225545 0.909686 0.348712 
7.210073 5.550689 28.913111 0.205204 0.904494 0.373875 
7.267570 5.579226 28.871679 0.232068 0.913887 0.333099 
7.286392 5.577447 28.782419 0.132548 0.948802 0.286716 
7.341075 5.603777 28.737499 0.303448 0.924564 0.230435 
7.347650 5.592388 28.633039 0.227297 0.942344 0.245610 
7.402654 5.618968 28.588499 0.328395 0.925829 0.187075 
7.402171 5.602033 28.475210 0.296357 0.953881 0.047788 
7.439900 5.615060 28.409229 0.305233 0.952245 0.007839 
7.427536 5.588789 28.281111 0.426571 0.904095 0.025485 
7.469648 5.605247 28.220510 0.121262 0.970760 0.207171 
7.489694 5.604390 28.132509 0.215696 0.942859 0.253952 
7.548290 5.633778 28.092360 0.097781 0.954220 0.282672 
7.565381 5.630594 28.000641 0.314603 0.931187 0.184162 
7.610273 5.649226 27.943451 0.192750 0.940574 0.279585 
7.634340 5.651510 27.860340 0.272917 0.902553 0.333037 
7.687094 5.676310 27.812920 0.249700 0.904473 0.345802 
7.706716 5.675097 27.724230 0.295180 0.911845 0.285319 
7.757639 5.698459 27.674509 0.277718 0.938501 0.205155 
7.756900 5.681248 27.560390 0.523377 0.838069 -0.154000 
7.754560 5.662769 27.444201 0.256156 0.966543 -0.013369 
7.778781 5.665147 27.361099 0.266354 0.951719 0.152601 
7.815157 5.677069 27.293150 0.039466 0.952745 0.301198 
7.857473 5.693656 27.232599 0.207690 0.910589 0.357342 
7.906239 5.715311 27.180099 0.178461 0.919413 0.350474 
7.932104 5.718966 27.098961 0.431488 0.856695 0.282652 
7.978961 5.739120 27.044060 0.325062 0.899161 0.292992 
7.991616 5.732384 26.946350 0.359614 0.908801 0.211559 
8.042062 5.755354 26.895910 0.244795 0.944804 0.217761 
8.047582 5.742999 26.789190 0.359674 0.933029 0.009538 
8.073523 5.746695 26.708010 0.089384 0.982034 0.166189 
8.107046 5.756351 26.636320 0.229613 0.955915 0.183040 
8.140950 5.766302 26.565081 0.060214 0.969506 0.237555 
8.175194 5.776518 26.494240 0.256105 0.942904 0.212936 
8.212041 5.788780 26.426661 0.261061 0.950595 0.167979 
8.226017 5.783043 26.330320 0.453952 0.862033 0.225450 
8.270993 5.801695 26.272921 0.317568 0.880864 0.351040 
8.299481 5.807370 26.194771 0.447757 0.859885 0.245176 
8.336807 5.819998 26.127710 0.206009 0.956899 0.204704 
