20.017570 6.652478 32.087830 0.066160 0.930536 0.360174 
20.064320 6.673053 32.036469 -0.012226 0.911264 0.411641 
15.576190 5.531399 42.547852 0.295275 0.940005 0.170889 
15.611010 5.542437 42.483570 0.398475 0.916902 0.022556 
15.611900 5.525583 42.377960 0.575555 0.813820 -0.080208 
15.624860 5.518640 42.286999 0.240166 0.961998 0.129922 
15.655970 5.526617 42.218121 0.230282 0.952319 0.200145 
15.689890 5.536906 42.152660 0.107728 0.968940 0.222596 
15.719310 5.543481 42.081680 0.141873 0.943346 0.299951 
15.773890 5.570754 42.041409 0.068728 0.944168 0.322217 
15.797440 5.572496 41.963230 0.335230 0.862722 0.378591 
15.850720 5.598698 41.921360 0.320406 0.868856 0.377397 
15.866170 5.593776 41.833248 0.406403 0.837704 0.364814 
15.922140 5.622183 41.794659 0.398009 0.866070 0.302510 
15.923710 5.605835 41.689522 0.317851 0.936337 0.149145 
15.972150 5.628042 41.641689 0.240076 0.943458 0.228583 
15.985290 5.621197 41.550629 0.197969 0.943806 0.264649 
16.040211 5.648746 41.510750 0.228299 0.948913 0.217815 
16.045750 5.635632 41.410309 0.171462 0.953806 0.246690 
16.100630 5.663140 41.370350 0.264945 0.946847 0.182443 
16.106239 5.650075 41.269932 0.263356 0.940519 0.214631 
16.152420 5.670418 41.219280 0.278340 0.912795 0.298885 
16.182619 5.677592 41.148998 0.144445 0.928792 0.341293 
16.225670 5.695359 41.094501 0.336538 0.880822 0.333008 
16.259239 5.705303 41.028320 0.207858 0.943957 0.256398 
16.289181 5.712266 40.957680 0.352217 0.928364 0.118672 
16.309500 5.711289 40.875160 0.161300 0.978790 0.126302 
16.339140 5.717986 40.804081 0.280630 0.958183 0.055963 
16.352831 5.711537 40.713329 0.121570 0.978176 0.168500 
16.393221 5.727087 40.655460 0.282782 0.947396 0.149917 
16.413071 5.725704 40.572239 0.083662 0.958994 0.270799 
16.460119 5.746744 40.522560 0.196764 0.937851 0.285868 
16.494869 5.757645 40.457699 0.183659 0.966803 0.177654 
16.512800 5.754662 40.372028 0.485189 0.874067 0.024464 
16.526991 5.748587 40.281700 0.196156 0.949142 0.246276 
16.574800 5.770249 40.232922 0.211644 0.947518 0.239618 
16.601000 5.774083 40.157410 0.127339 0.978193 0.164085 
16.631580 5.781519 40.087280 0.285183 0.949002 0.134412 
16.658640 5.786053 40.012772 0.102802 0.966800 0.233942 
16.695709 5.798842 39.950649 0.158261 0.916655 0.367012 
16.749020 5.825039 39.908649 0.108376 0.935699 0.335742 
16.772520 5.826622 39.829670 0.231104 0.944293 0.234311 
16.820801 5.848658 39.781422 0.234865 0.955733 0.177239 
16.818920 5.829270 39.670879 0.441663 0.897177 0.002630 
16.847700 5.835205 39.598389 0.239290 0.960022 0.145253 
16.868660 5.834668 39.516140 0.401327 0.906420 0.131676 
16.898199 5.841214 39.444519 0.256113 0.935336 0.244035 
16.927450 5.847518 39.372532 0.286460 0.902173 0.322529 
16.977180 5.870752 39.326031 0.206600 0.922985 0.324678 
16.999830 5.871597 39.245781 0.268645 0.893781 0.359145 
17.053740 5.898277 39.204472 0.277528 0.888129 0.366340 
17.073759 5.896936 39.120899 0.391641 0.838528 0.378798 
17.128839 5.924589 39.081051 0.351671 0.852703 0.386298 
17.141939 5.917516 38.988781 0.414455 0.875903 0.247024 
17.187031 5.936902 38.936451 0.442425 0.882120 0.161631 
17.177750 5.911311 38.816170 0.481819 0.876221 0.009324 
17.215010 5.924216 38.754009 0.182960 0.971432 0.151148 
17.229031 5.917887 38.662762 0.335623 0.927222 0.166184 
17.269791 5.933673 38.604931 0.113385 0.950639 0.288842 
17.299540 5.940345 38.533298 0.102079 0.909891 0.402093 
17.361250 5.973473 38.501701 0.174295 0.929172 0.325978 
17.376680 5.968293 38.412109 0.286339 0.915640 0.282160 
17.425730 5.990943 38.364639 0.294056 0.925908 0.237120 
17.437111 5.982395 38.269901 0.413662 0.880928 0.229891 
17.484119 6.003352 38.219860 0.416446 0.874835 0.247460 
17.484200 5.985431 38.110859 0.427724 0.890787 0.153466 
17.532921 6.007800 38.062931 0.195752 0.951393 0.237765 
17.547371 6.001774 37.971909 0.225729 0.949639 0.217329 
17.604290 6.030931 37.934280 0.176278 0.967962 0.178820 
17.601391 6.010520 37.821369 0.241781 0.969561 0.038643 
17.640511 6.024919 37.761299 0.072045 0.984349 0.160832 
17.662729 6.025319 37.679951 0.206796 0.957235 0.202327 
17.706120 6.043247 37.625229 0.211935 0.954673 0.209004 
17.720150 6.036847 37.533501 0.426169 0.874948 0.229882 
17.763599 6.054826 37.478828 0.356328 0.902150 0.243219 
17.776699 6.047638 37.385849 0.465428 0.843307 0.268718 
17.821581 6.066802 37.332970 0.333948 0.857896 0.390504 
17.848669 6.071206 37.257599 0.356734 0.869686 0.341156 
17.894300 6.090989 37.205639 0.262310 0.923255 0.280702 
17.913679 6.088989 37.120480 0.187063 0.965759 0.179769 
17.958719 6.108280 37.067760 0.096091 0.978364 0.183224 
17.976400 6.104863 36.980389 0.098768 0.970587 0.219556 
18.028561 6.130056 36.936661 0.154449 0.957031 0.245433 
18.046850 6.127135 36.850010 0.174339 0.960752 0.215783 
18.093929 6.148110 36.799839 0.218569 0.961028 0.169270 
18.106239 6.140215 36.705551 0.282320 0.939000 0.196405 
18.148720 6.157370 36.649509 0.302925 0.937278 0.172469 
18.156099 6.145365 36.548889 0.327293 0.892642 0.309952 
18.211960 6.173626 36.509819 0.307864 0.898595 0.312645 
18.227970 6.168787 36.420101 0.367303 0.909427 0.195019 
18.267151 6.183187 36.359810 0.241350 0.947984 0.207551 
18.286261 6.180910 36.273960 0.217740 0.960728 0.172023 
18.326941 6.196552 36.215549 0.222591 0.956460 0.188779 
18.347361 6.195351 36.131321 0.218547 0.940406 0.260527 
18.394850 6.216650 36.081551 0.219917 0.944109 0.245551 
18.411039 6.211924 35.991871 0.284093 0.934551 0.214254 
18.455339 6.230563 35.938011 0.381330 0.905421 0.186549 
18.458771 6.215216 35.831982 0.399489 0.892989 0.207314 
18.511940 6.241229 35.789421 0.359639 0.899620 0.247678 
18.511021 6.222255 35.677761 0.410301 0.869668 0.274465 
18.571520 6.254360 35.644539 0.134660 0.898404 0.418015 
18.596001 6.256506 35.565281 0.174145 0.913467 0.367766 
18.652081 6.284931 35.526421 0.278606 0.904977 0.321553 
18.665520 6.277879 35.432980 0.322224 0.893523 0.312711 
18.718540 6.303762 35.390202 0.441718 0.845514 0.299985 
18.723520 6.289660 35.285858 0.444185 0.870152 0.213389 
18.766100 6.306848 35.229671 0.403905 0.885275 0.230540 
18.778709 6.299079 35.135029 0.341494 0.918344 0.200064 
18.822571 6.317334 35.080460 0.349883 0.914884 0.201418 
18.830830 6.305929 34.980160 0.336834 0.917504 0.211494 
18.876101 6.325350 34.927368 0.193063 0.932069 0.306552 
18.904699 6.330874 34.853130 0.118790 0.895936 0.428004 
18.963270 6.361375 34.817429 0.272425 0.908620 0.316536 
18.975479 6.353240 34.722080 0.292319 0.911811 0.288359 
19.024599 6.375862 34.674210 0.441257 0.877554 0.187595 
19.027470 6.359936 34.566761 0.478928 0.843314 0.243824 
19.072849 6.379439 34.514050 0.460995 0.839001 0.289067 
19.091551 6.376684 34.426910 0.429903 0.874684 0.223854 
19.129761 6.390210 34.364929 0.420184 0.887935 0.187129 
19.139320 6.379830 34.265949 0.241465 0.945885 0.216787 
19.193251 6.406452 34.224209 0.095579 0.957600 0.271785 
19.213810 6.405238 34.139370 0.239975 0.934671 0.262303 
19.257450 6.423269 34.084320 0.274081 0.913678 0.300120 
19.280109 6.423801 34.002151 0.276717 0.924293 0.262887 
19.326000 6.443706 33.949989 0.370130 0.914305 0.164471 
19.333700 6.431740 33.848381 0.485967 0.870367 0.079350 
19.362770 6.437609 33.774429 0.403395 0.903747 0.143226 
19.375179 6.429562 33.678841 0.303446 0.914981 0.265954 
19.432510 6.459011 33.641449 0.134718 0.945941 0.295037 
19.450180 6.455342 33.552620 0.212819 0.936478 0.278777 
19.509029 6.486061 33.517208 0.078217 0.948188 0.307932 
19.531900 6.486731 33.435089 0.190438 0.962052 0.195422 
19.571890 6.501699 33.375179 0.256703 0.950186 0.176777 
19.586571 6.495515 33.282349 0.454521 0.861488 0.226384 
19.632380 6.515332 33.229969 0.387647 0.884250 0.260443 
19.639730 6.503014 33.127541 0.434676 0.892626 0.119481 
19.674351 6.513476 33.060558 0.302620 0.933821 0.190785 
19.690901 6.508831 32.970020 0.451729 0.882045 0.133930 
19.727579 6.521010 32.905682 0.087994 0.949526 0.301094 
19.763170 6.532279 32.839920 0.168212 0.876998 0.450087 
19.828951 6.568789 32.813511 0.166059 0.890698 0.423181 
19.844370 6.563179 32.721390 0.426129 0.886903 0.178373 
19.881590 6.575805 32.657711 0.403853 0.891980 0.203163 
19.895439 6.568866 32.563461 0.492724 0.826845 0.271202 
19.940479 6.588025 32.509960 0.340689 0.861835 0.375727 
19.963449 6.588713 32.427582 0.409832 0.808549 0.422240 
20.023479 6.620409 32.393661 0.384628 0.846326 0.368504 
20.028330 6.605925 32.287521 0.348308 0.931543 0.104443 
20.070150 6.622380 32.229752 0.085167 0.977573 0.192609 
20.093361 6.623251 32.147579 0.112705 0.957360 0.266007 
20.146160 6.648896 32.104179 -0.045321 0.902555 0.428182 
15.673750 5.503214 42.524380 0.606787 0.775169 -0.175849 
15.667120 5.480152 42.409611 0.458724 0.884531 0.084720 
15.710680 5.498372 42.355949 0.147566 0.959236 0.241019 
15.731380 5.497775 42.274399 0.141818 0.964374 0.223317 
15.780660 5.520699 42.227699 0.070271 0.974146 0.214712 
15.798070 5.517390 42.142090 0.046254 0.972677 0.227506 
15.850850 5.543190 42.099651 0.258185 0.953299 0.156722 
15.857270 5.530829 42.000568 0.264161 0.918316 0.294813 
15.913430 5.559400 41.962231 0.326581 0.900437 0.287331 
15.926800 5.552750 41.871578 0.307376 0.894125 0.325669 
15.976160 5.575727 41.824921 0.416081 0.860392 0.294282 
15.995550 5.574028 41.741589 0.227665 0.944486 0.236887 
16.033630 5.587715 41.681110 0.249862 0.937767 0.241170 
16.065001 5.595866 41.612389 0.051942 0.957442 0.283914 
16.107500 5.613190 41.557301 0.189302 0.944281 0.269255 
16.146589 5.627698 41.498020 0.142487 0.961345 0.235611 
16.171110 5.630205 41.420860 0.406442 0.908870 0.093596 
16.192249 5.629917 41.339520 0.245414 0.958311 0.146331 
16.218691 5.634000 41.264660 0.299613 0.921332 0.247748 
16.258440 5.649041 41.206120 0.213741 0.933562 0.287710 
16.284710 5.652966 41.131001 0.294971 0.892498 0.341232 
16.335970 5.677498 41.086609 0.232420 0.917125 0.323825 
16.354151 5.674752 41.001499 0.288785 0.931718 0.220238 
16.400669 5.695369 40.951248 0.149082 0.966754 0.207752 
16.413420 5.688138 40.859409 0.302961 0.945186 0.121814 
16.454599 5.704350 40.802559 0.195864 0.966394 0.166495 
16.464350 5.694624 40.706928 0.264144 0.956159 0.126441 
16.507450 5.712414 40.652420 0.110847 0.967660 0.226600 
16.530479 5.713640 40.573120 0.317864 0.919182 0.232523 
16.571541 5.729743 40.516071 0.236029 0.944066 0.230283 
16.589399 5.726691 40.430328 0.211977 0.969075 0.126333 
16.627560 5.740400 40.369671 0.134862 0.975213 0.175418 
16.649780 5.740936 40.289268 0.144090 0.970441 0.193605 
16.693810 5.759484 40.235840 0.204100 0.971219 0.122791 
16.700480 5.747176 40.136139 0.290323 0.947084 0.136908 
16.745159 5.766249 40.083469 0.209826 0.955343 0.208071 
16.759720 5.760446 39.993469 0.244937 0.902832 0.353412 
16.820900 5.793149 39.961250 0.186047 0.914266 0.359867 
16.833590 5.785791 39.868881 0.291916 0.909392 0.296295 
16.886709 5.811839 39.826660 0.349800 0.909669 0.223925 
16.887871 5.794942 39.719910 0.340972 0.936400 0.083023 
16.924919 5.807696 39.657700 0.354725 0.928334 0.111205 
16.931610 5.795358 39.557732 0.392969 0.906864 0.152227 
16.972410 5.811209 39.500141 0.224025 0.942727 0.247141 
16.994720 5.811765 39.419521 0.238974 0.926504 0.290657 
17.040400 5.831648 39.367981 0.238898 0.922270 0.303884 
17.066469 5.835310 39.292011 0.232654 0.912058 0.337672 
17.113001 5.855902 39.241531 0.377016 0.886245 0.269125 
17.126690 5.849314 39.150070 0.359049 0.849418 0.386746 
17.182270 5.877375 39.110840 0.396637 0.829509 0.393184 
17.203020 5.876625 39.028149 0.408426 0.862275 0.299449 
17.242741 5.891568 38.969120 0.519481 0.838733 0.163298 
17.246759 5.876960 38.865459 0.295316 0.943186 0.152281 
17.290260 5.895020 38.811111 0.332903 0.931138 0.148854 
17.296829 5.882509 38.710560 0.225199 0.944882 0.237662 
17.354900 5.912634 38.674419 0.062808 0.939543 0.336621 
17.381439 5.916645 38.598801 0.064268 0.951038 0.302317 
17.430950 5.939680 38.551941 0.228810 0.938016 0.260331 
17.453480 5.940372 38.471272 0.125884 0.961718 0.243419 
17.497450 5.958813 38.417450 0.434024 0.896857 0.085272 
17.492029 5.936328 38.301651 0.427319 0.875832 0.224316 
17.540359 5.958381 38.253269 0.420493 0.865801 0.271246 
17.557440 5.954530 38.165630 0.179803 0.952238 0.246806 
17.603081 5.974346 38.113850 0.215373 0.954641 0.205610 
17.621771 5.971826 38.028179 0.101749 0.959184 0.263844 
17.672871 5.996165 37.983250 0.221399 0.955543 0.194731 
17.689180 5.991657 37.894531 0.075349 0.987552 0.138071 
17.731100 6.008379 37.838020 0.252089 0.964918 0.073382 
17.736580 5.994883 37.735600 0.166473 0.976026 0.140211 
17.782240 6.014702 37.683769 0.284242 0.954486 0.090347 
17.784250 5.998317 37.576900 0.286185 0.943094 0.169330 
17.830780 6.018849 37.526131 0.323781 0.935955 0.138396 
17.830370 6.000440 37.416111 0.363555 0.895250 0.257595 
17.886101 6.028605 37.376930 0.216748 0.905400 0.365063 
17.909750 6.030149 37.297230 0.256600 0.891861 0.372479 
17.965349 6.058210 37.257900 0.144186 0.919637 0.365348 
17.990610 6.061078 37.180191 0.066676 0.966756 0.246853 
18.038050 6.082367 37.130531 0.194615 0.961555 0.193744 
18.059910 6.082408 37.048481 0.110880 0.973427 0.200363 
18.098640 6.096456 36.987770 0.230010 0.938486 0.257563 
18.136971 6.110174 36.926540 0.154658 0.953451 0.258868 
18.164869 6.115218 36.852070 0.386081 0.916432 0.105329 
18.183500 6.112562 36.765820 0.131969 0.971162 0.198569 
18.226660 6.130277 36.710659 0.299615 0.947398 0.112551 
18.236530 6.120332 36.613220 0.153400 0.974867 0.161564 
18.277399 6.136137 36.555130 0.352553 0.922355 0.158011 
18.294350 6.132065 36.466610 0.174681 0.953209 0.246738 
18.345280 6.156227 36.421280 0.259731 0.939122 0.224920 
18.365459 6.154827 36.336819 0.228158 0.959735 0.163866 
18.396601 6.162536 36.266281 0.402485 0.905993 0.131087 
18.416479 6.160881 36.181381 0.246259 0.918300 0.309970 
18.466570 6.184346 36.134949 0.474356 0.840337 0.262336 
18.477171 6.174958 36.038158 0.418915 0.881168 0.219210 
18.514240 6.187587 35.975101 0.491003 0.857702 0.152525 
18.521931 6.175763 35.874512 0.300727 0.927794 0.220822 
18.564369 6.192849 35.818260 0.406113 0.901890 0.147195 
18.571871 6.180856 35.717350 0.167669 0.931448 0.322942 
18.636841 6.216699 35.689880 0.138200 0.927058 0.348517 
18.662870 6.220114 35.612598 0.132224 0.930640 0.341212 
18.712730 6.243378 35.565811 0.401125 0.890678 0.213989 
18.724979 6.235318 35.470852 0.449874 0.846436 0.284885 
18.767090 6.252120 35.414108 0.527866 0.803372 0.275593 
18.784990 6.248751 35.326321 0.364739 0.886771 0.283906 
18.828770 6.266944 35.271690 0.473646 0.845875 0.245265 
18.843580 6.260995 35.179878 0.419833 0.873751 0.245559 
18.882799 6.275378 35.119370 0.354422 0.900048 0.253573 
18.905769 6.276218 35.037971 0.110454 0.962360 0.248322 
18.953030 6.297293 34.987751 0.106889 0.958028 0.266001 
18.985020 6.305643 34.917900 0.016346 0.950141 0.311393 
19.033859 6.328045 34.869720 0.312298 0.910998 0.269355 
19.064039 6.334880 34.797508 0.217871 0.952166 0.214270 
19.088110 6.336619 34.717419 0.569174 0.822167 0.009064 
19.093611 6.322857 34.613361 0.401390 0.899479 0.172695 
19.131281 6.335927 34.550720 0.499668 0.841056 0.207261 
19.147421 6.331031 34.460300 0.389408 0.882073 0.265156 
19.189480 6.347759 34.403290 0.344795 0.902408 0.258413 
19.214390 6.350176 34.324131 0.062983 0.948995 0.308935 
19.268000 6.376539 34.282009 0.259636 0.943999 0.203606 
19.279369 6.367640 34.185310 0.197677 0.948993 0.245635 
19.333820 6.394703 34.144260 0.172636 0.939354 0.296328 
19.361490 6.399402 34.068581 0.345400 0.921885 0.175578 
19.384720 6.400392 33.987129 0.559489 0.827833 0.040804 
19.389999 6.386391 33.882401 0.380150 0.912507 0.151053 
19.431129 6.402319 33.824059 0.237488 0.948696 0.208749 
19.455580 6.404312 33.744091 0.087400 0.956841 0.277157 
19.504990 6.427158 33.696468 0.229194 0.939097 0.256059 
19.527901 6.427852 33.614449 0.111568 0.942457 0.315164 
19.580910 6.453703 33.571491 0.202828 0.930144 0.306092 
19.604660 6.455100 33.490528 0.251515 0.943166 0.217203 
19.641670 6.467575 33.426769 0.490633 0.868024 0.076250 
19.636801 6.445034 33.308540 0.450345 0.856301 0.252861 
19.687340 6.468804 33.262310 0.428168 0.856409 0.288504 
19.702141 6.462697 33.169579 0.428177 0.864320 0.263849 
19.749109 6.483483 33.118698 0.374175 0.891735 0.254561 
19.755060 6.469959 33.014370 0.252395 0.941405 0.223724 
19.811069 6.498306 32.975239 0.152695 0.957915 0.243070 
19.820459 6.487651 32.875332 0.176504 0.904757 0.387636 
19.890160 6.527456 32.854061 0.261551 0.905059 0.335349 
19.904381 6.520827 32.760380 0.436337 0.878018 0.196707 
19.940290 6.532350 32.695000 0.420394 0.893604 0.157295 
19.949591 6.521594 32.594818 0.426071 0.847304 0.317079 
20.004829 6.549285 32.554649 0.367605 0.846727 0.384603 
20.019791 6.543262 32.461819 0.386239 0.831170 0.399970 
20.072571 6.568896 32.418430 0.249449 0.869303 0.426717 
20.105339 6.577770 32.348839 0.093368 0.954767 0.282317 
20.150539 6.597059 32.295521 0.157618 0.963960 0.214333 
20.173290 6.597535 32.212769 0.075538 0.971961 0.222677 
20.218309 6.616669 32.159199 0.200322 0.949888 0.239967 
20.243851 6.619472 32.080059 0.250887 0.947263 0.199370 
15.737570 5.464902 42.566502 0.581616 0.792345 -0.184149 
15.733300 5.443769 42.454632 0.225768 0.945777 0.233525 
15.787610 5.470827 42.414070 0.128220 0.949289 0.287071 
15.810370 5.471927 42.335072 0.035390 0.962560 0.268750 
15.865140 5.499364 42.295071 0.004195 0.951275 0.308315 
15.904320 5.513974 42.236069 0.115731 0.983359 0.140042 
15.915530 5.505554 42.142910 0.393852 0.918312 0.039792 
15.943760 5.511131 42.070480 0.149362 0.967658 0.203297 
15.973170 5.517689 41.999481 0.406655 0.894600 0.185263 
16.003460 5.524962 41.929531 0.213321 0.943541 0.253428 
16.032900 5.531530 41.858528 0.304358 0.903179 0.302712 
16.080240 5.552844 41.809410 0.105081 0.940580 0.322904 
16.108761 5.558652 41.737251 0.163335 0.939538 0.300982 
16.160839 5.583876 41.693939 0.189422 0.943282 0.272651 
16.172291 5.575607 41.600811 0.349123 0.910422 0.221914 
16.217430 5.595103 41.548969 0.317620 0.912687 0.257139 
16.231760 5.589200 41.459320 0.477365 0.864786 0.155778 
16.266979 5.600513 41.395279 0.318426 0.925047 0.207106 
16.284081 5.596876 41.308949 0.363999 0.889879 0.274991 
16.331699 5.618413 41.260109 0.275102 0.909111 0.312788 
16.348040 5.614146 41.172798 0.260364 0.908388 0.327173 
16.401569 5.640552 41.131210 0.231356 0.913745 0.333983 
16.422550 5.640100 41.049561 0.143010 0.940889 0.307043 
16.477680 5.667832 41.009941 0.281146 0.941888 0.183860 
16.476810 5.649344 40.901329 0.275421 0.946887 0.165978 
16.525730 5.671943 40.854038 0.248388 0.949473 0.191843 
16.539440 5.665469 40.763309 0.245390 0.947913 0.203086 
16.584160 5.684598 40.710819 0.402187 0.895876 0.188818 
16.590269 5.671844 40.610649 0.357716 0.889985 0.282782 
16.644991 5.699225 40.570480 0.262369 0.895882 0.358549 
16.666821 5.699444 40.489670 0.307733 0.928777 0.206579 
16.701031 5.709889 40.424149 0.223809 0.940979 0.253906 
16.734440 5.719660 40.357609 0.172891 0.957192 0.232148 
16.765760 5.727710 40.288479 0.380076 0.921612 0.078568 
16.774330 5.716949 40.191132 0.206718 0.966953 0.149233 
16.815451 5.733092 40.134090 0.278383 0.951371 0.131891 
16.826361 5.724252 40.039570 0.121940 0.938657 0.322573 
16.891850 5.760533 40.012730 0.261252 0.918191 0.297779 
16.906639 5.754889 39.922958 0.273543 0.927603 0.254416 
16.949711 5.772638 39.868301 0.439773 0.872676 0.212219 
16.964750 5.767192 39.778790 0.423170 0.899163 0.111504 
16.988770 5.769172 39.700401 0.437849 0.896483 0.067873 
16.999140 5.759857 39.605019 0.230968 0.952676 0.197640 
17.046909 5.781476 39.556122 0.175554 0.954076 0.242732 
17.069281 5.782080 39.475609 0.098625 0.968580 0.228312 
17.114269 5.801390 39.423229 0.165994 0.963710 0.209068 
17.138580 5.803592 39.345089 0.146638 0.962206 0.229469 
17.178450 5.818663 39.286301 0.328246 0.930402 0.163118 
17.196980 5.816076 39.200909 0.264342 0.929007 0.258979 
17.237740 5.831877 39.143211 0.412097 0.862967 0.292342 
17.264910 5.836426 39.068531 0.433536 0.849523 0.300595 
17.300730 5.848137 39.004639 0.456453 0.852462 0.254873 
17.325609 5.850785 38.927059 0.228826 0.954349 0.191983 
17.353649 5.856050 38.853409 0.400051 0.911052 0.099720 
17.372650 5.853818 38.768421 0.074912 0.953597 0.291618 
17.428230 5.881882 38.729179 0.136874 0.919602 0.368237 
17.466709 5.895786 38.668541 0.121243 0.946712 0.298391 
17.498199 5.903891 38.599129 0.204608 0.938713 0.277405 
17.543610 5.923528 38.547150 0.248223 0.947733 0.200469 
17.551920 5.912420 38.448639 0.611985 0.789904 -0.039074 
17.566191 5.906241 38.357559 0.274875 0.948416 0.157957 
17.597290 5.914002 38.287560 0.264715 0.919420 0.290848 
17.644569 5.935183 38.237862 0.062619 0.940541 0.333860 
17.678770 5.945517 38.171730 0.195627 0.947658 0.252337 
17.718630 5.960546 38.112709 0.084379 0.969104 0.231771 
17.743759 5.963343 38.035130 0.230387 0.952505 0.199138 
17.786631 5.980865 37.979870 0.202745 0.963390 0.175426 
17.797541 5.971859 37.884350 0.318454 0.940197 0.120900 
17.840651 5.989571 37.829350 0.200831 0.964921 0.169100 
17.851500 5.980506 37.733681 0.448764 0.893637 0.004874 
17.872200 5.979614 37.650391 0.146307 0.978442 0.145758 
17.903521 5.987528 37.580460 0.410640 0.911540 0.021679 
17.907391 5.972647 37.475861 0.190535 0.965098 0.179672 
17.954729 5.993851 37.426109 0.265142 0.931745 0.248095 
17.976641 5.993945 37.344231 0.111482 0.923378 0.367349 
18.038059 6.026846 37.312271 0.046109 0.875335 0.481313 
18.088890 6.050955 37.266941 0.192368 0.930326 0.312229 
18.104980 6.046192 37.177620 0.340446 0.913153 0.224162 
18.152929 6.067907 37.128632 0.339750 0.906857 0.249360 
18.160431 6.056003 37.028381 0.409576 0.876509 0.252944 
18.209700 6.078804 36.981030 0.331380 0.881288 0.336925 
18.228720 6.076467 36.895321 0.327219 0.908972 0.258258 
18.277740 6.099061 36.847641 0.232608 0.936486 0.262463 
18.290001 6.091091 36.753288 0.300442 0.941295 0.153941 
18.335291 6.110582 36.700859 0.199355 0.968485 0.149314 
18.340960 6.097116 36.598061 0.297031 0.946633 0.125139 
18.387760 6.117851 36.547508 0.128972 0.969079 0.210362 
18.402941 6.112287 36.456730 0.346376 0.919938 0.183679 
18.447210 6.130925 36.402962 0.260335 0.948014 0.183019 
18.455940 6.119981 36.303902 0.467535 0.880709 0.075912 
18.485420 6.126296 36.231232 0.348553 0.911884 0.216746 
18.507580 6.126515 36.149212 0.562916 0.800910 0.204131 
18.542419 6.137286 36.083328 0.321408 0.896252 0.305663 
18.574320 6.145608 36.013691 0.362399 0.894485 0.261847 
18.611980 6.158725 35.951382 0.134201 0.960552 0.243579 
18.639360 6.163274 35.875919 0.246537 0.952988 0.176165 
18.677000 6.176363 35.813549 0.019054 0.974116 0.225244 
18.705290 6.181663 35.739208 0.134153 0.955838 0.261489 
18.757811 6.207147 35.695850 0.118239 0.965750 0.230967 
18.769470 6.198586 35.600189 0.556212 0.831010 0.007080 
18.786751 6.194700 35.511681 0.313048 0.924486 0.217549 
18.823830 6.207315 35.448509 0.436982 0.868230 0.234997 
18.851641 6.212191 35.373428 0.380329 0.890644 0.249204 
18.879259 6.216914 35.298100 0.542451 0.818472 0.189344 
18.904739 6.219840 35.219978 0.211056 0.925629 0.314113 
18.951120 6.240194 35.168671 0.134237 0.920684 0.366498 
18.998240 6.261162 35.118320 0.022181 0.950335 0.310436 
19.028469 6.268048 35.046249 0.080476 0.959790 0.268938 
19.080610 6.293200 35.002338 0.196721 0.961881 0.189965 
19.083530 6.277294 34.895100 0.425022 0.870989 0.246444 
19.138981 6.305208 34.855431 0.285260 0.920688 0.266383 
19.139759 6.287499 34.745361 0.601373 0.798918 -0.008945 
19.163361 6.288827 34.664631 0.316299 0.935658 0.156519 
19.186291 6.289589 34.583000 0.389452 0.904596 0.173299 
19.220989 6.300181 34.516541 0.141022 0.955769 0.258104 
19.254801 6.310011 34.448879 0.130770 0.938361 0.319967 
19.309799 6.337550 34.408600 0.061837 0.949356 0.308058 
19.331671 6.337411 34.325508 0.367981 0.914372 0.168861 
19.369699 6.350764 34.263279 0.222600 0.937288 0.268218 
19.396900 6.355071 34.187031 0.495013 0.846651 0.195304 
19.423210 6.358634 34.109612 0.425799 0.885777 0.184647 
19.445971 6.359219 34.027550 0.453564 0.883406 0.117786 
19.472361 6.362833 33.950161 0.152591 0.969180 0.193404 
19.505280 6.371902 33.881222 0.240795 0.948449 0.206063 
19.539921 6.382405 33.814480 0.141782 0.959501 0.243425 
19.570601 6.389595 33.742592 0.278414 0.933233 0.227073 
19.607401 6.401904 33.678631 0.077708 0.945970 0.314806 
19.647739 6.417163 33.619240 0.337953 0.903623 0.263160 
19.679119 6.424932 33.548199 0.297784 0.936567 0.184845 
19.696520 6.420994 33.458961 0.555259 0.831669 0.003849 
19.711300 6.414863 33.366280 0.300959 0.937773 0.173221 
19.745310 6.424819 33.298592 0.477847 0.868225 0.133595 
19.756241 6.415455 33.200821 0.390137 0.865689 0.313650 
19.807871 6.440146 33.156021 0.267910 0.895875 0.354447 
19.834970 6.444306 33.079262 0.042171 0.951914 0.303450 
19.886940 6.469281 33.034901 0.115426 0.949457 0.291905 
19.921770 6.479907 32.968189 0.100410 0.969370 0.224141 
19.949499 6.484579 32.892181 0.383681 0.914942 0.125179 
19.971161 6.484164 32.808220 0.177661 0.962288 0.206004 
20.013571 6.501132 32.751350 0.394366 0.917395 0.053504 
20.008181 6.478047 32.631981 0.280006 0.933997 0.221916 
20.060760 6.503525 32.588360 0.275870 0.922578 0.269716 
20.083750 6.504208 32.506020 0.128303 0.915911 0.380323 
20.147751 6.539249 32.477341 0.046055 0.894184 0.445325 
20.187059 6.553607 32.416351 0.088748 0.944546 0.316159 
20.225861 6.567537 32.354679 0.125049 0.943671 0.306346 
20.272301 6.587862 32.303009 0.257046 0.940481 0.222311 
20.286409 6.581079 32.208920 0.421275 0.892154 0.163062 
20.323820 6.593835 32.145378 0.310443 0.907780 0.282064 
20.350290 6.597412 32.067459 0.465521 0.862662 0.197749 
15.816260 5.421222 42.520088 -0.035162 0.934660 0.353799 
15.860810 5.440259 42.467670 0.143919 0.928821 0.341437 
15.906550 5.460274 42.416710 0.063300 0.940472 0.333924 
15.936850 5.467571 42.346901 0.207866 0.918415 0.336610 
15.987230 5.491408 42.301590 0.277356 0.936332 0.215304 
15.985930 5.472654 42.193150 0.321596 0.942674 0.089118 
16.027510 5.489236 42.137070 0.254718 0.956046 0.145243 
16.033430 5.476424 42.037369 0.318580 0.929471 0.185985 
16.083019 5.499604 41.991051 0.228649 0.942109 0.245255 
16.097240 5.493617 41.901428 0.274375 0.904660 0.326051 
16.155140 5.523648 41.865280 0.213741 0.903885 0.370548 
16.172171 5.519970 41.779049 0.238060 0.909886 0.339757 
16.227200 5.547630 41.739368 0.264357 0.922308 0.281893 
16.238070 5.538866 41.645538 0.386722 0.893387 0.228705 
16.282049 5.557406 41.592289 0.413388 0.880877 0.230578 
16.288290 5.544815 41.492722 0.443748 0.866313 0.229325 
16.335310 5.565860 41.443180 0.401166 0.882079 0.246987 
16.340490 5.552379 41.342220 0.329125 0.892444 0.308579 
16.398029 5.582102 41.305592 0.251975 0.895588 0.366649 
16.420670 5.583019 41.226040 0.145181 0.937645 0.315822 
16.470289 5.606210 41.179668 0.176109 0.918637 0.353682 
16.507339 5.619015 41.117809 0.106009 0.945691 0.307296 
16.541889 5.629765 41.052879 0.346790 0.921348 0.175653 
16.568100 5.633610 40.977638 0.135584 0.977453 0.161871 
16.594820 5.637884 40.903011 0.456877 0.887177 0.064657 
16.610470 5.633006 40.814701 0.330633 0.931895 0.149173 
16.636999 5.637102 40.739769 0.525048 0.844691 0.104022 
16.655640 5.634686 40.655079 0.255486 0.913276 0.317259 
16.702681 5.655729 40.605450 0.346970 0.873226 0.342182 
16.730829 5.661161 40.532459 0.211833 0.933122 0.290536 
16.771460 5.676899 40.474880 0.228320 0.926164 0.300152 
16.807430 5.688787 40.411530 0.196145 0.951535 0.236871 
16.832621 5.691761 40.334820 0.323012 0.933440 0.156057 
16.867270 5.702556 40.269798 0.158560 0.969686 0.185922 
16.889870 5.703381 40.189831 0.319061 0.938208 0.134033 
16.923019 5.712924 40.122921 0.150956 0.964174 0.218130 
16.946730 5.714655 40.044270 0.442853 0.880047 0.171459 
16.978430 5.722996 39.975510 0.326647 0.915795 0.233712 
17.003050 5.725467 39.897942 0.597663 0.789273 0.140882 
17.025000 5.725735 39.817032 0.414724 0.877715 0.240045 
17.060381 5.737108 39.752781 0.436085 0.875034 0.210107 
17.084270 5.738963 39.674221 0.186102 0.952047 0.242843 
17.120680 5.751184 39.611221 0.130218 0.936992 0.324175 
17.170509 5.774508 39.564899 0.116613 0.954781 0.273485 
17.190491 5.773117 39.481411 0.247534 0.949029 0.195119 
17.233900 5.791127 39.427090 0.191776 0.962262 0.193064 
17.245029 5.782404 39.332520 0.411844 0.908875 0.065808 
17.273199 5.787780 39.259151 0.267738 0.947287 0.175964 
17.297010 5.789543 39.180321 0.478881 0.865760 0.145369 
17.320570 5.791094 39.101151 0.321005 0.909116 0.265450 
17.357401 5.803643 39.038528 0.267749 0.891159 0.366259 
17.406590 5.826427 38.991348 0.259882 0.922876 0.284186 
17.421160 5.820514 38.900871 0.354342 0.912018 0.206557 
17.468250 5.841554 38.851040 0.112312 0.948894 0.294934 
17.487120 5.839200 38.765881 0.254303 0.912218 0.321228 
17.545389 5.869511 38.730049 0.149469 0.921059 0.359597 
17.567450 5.869791 38.648842 0.294843 0.915232 0.274623 
17.610491 5.887467 38.593910 0.419288 0.893145 0.162759 
17.608740 5.867989 38.482780 0.438366 0.893875 0.093931 
17.650669 5.884743 38.426418 0.213748 0.955237 0.204536 
17.667061 5.880301 38.337978 0.240042 0.928528 0.283224 
17.719990 5.906172 38.295410 0.206133 0.909432 0.361168 
17.744310 5.908306 38.216881 0.234194 0.903585 0.358729 
17.800711 5.937059 38.178669 0.223828 0.922197 0.315363 
17.812290 5.928604 38.084068 0.258586 0.944478 0.202718 
17.856680 5.947387 38.030739 0.365324 0.915123 0.170554 
17.866501 5.937463 37.933861 0.317988 0.928539 0.191570 
17.908110 5.953932 37.876991 0.385727 0.907742 0.164984 
17.915649 5.942096 37.777149 0.340199 0.927923 0.152394 
17.960770 5.961474 37.724682 0.212528 0.962648 0.167749 
17.965851 5.947587 37.621658 0.486441 0.873242 0.028698 
17.996759 5.955150 37.551208 0.252812 0.947768 0.194477 
18.020300 5.956588 37.471420 0.284290 0.926784 0.245461 
18.065109 5.975705 37.418510 0.091907 0.942477 0.321387 
18.093479 5.981146 37.344780 0.212997 0.875232 0.434282 
18.152660 6.012195 37.310020 0.295265 0.898746 0.324152 
18.163340 6.002926 37.213871 0.431890 0.866050 0.251848 
18.205549 6.019874 37.157631 0.474892 0.845343 0.244687 
18.219629 6.013413 37.065708 0.467349 0.827851 0.310237 
18.266081 6.033881 37.014809 0.430205 0.815891 0.386323 
18.289961 6.035572 36.935268 0.361591 0.841413 0.401592 
18.340780 6.059664 36.889889 0.271283 0.885249 0.377809 
18.364531 6.061239 36.810139 0.153804 0.958259 0.241006 
18.406420 6.077902 36.753410 0.305759 0.941723 0.140247 
18.419100 6.070257 36.659538 0.123588 0.975784 0.180477 
18.466000 6.091079 36.609138 0.248278 0.959221 0.135108 
18.475470 6.080745 36.511120 0.202080 0.967632 0.151172 
18.517031 6.097126 36.453911 0.311259 0.944668 0.103540 
18.523710 6.084456 36.352249 0.360734 0.928600 0.087020 
18.557480 6.094347 36.285080 0.400633 0.907930 0.123113 
18.569420 6.086039 36.190029 0.430921 0.881557 0.192780 
18.608549 6.100387 36.129650 0.336607 0.894629 0.293827 
18.634451 6.103701 36.052361 0.270677 0.887337 0.373319 
18.689260 6.131097 36.011959 0.185334 0.928653 0.321332 
18.704901 6.125860 35.921520 0.136732 0.952637 0.271637 
18.767570 6.159816 35.891178 0.050184 0.966377 0.252186 
18.782141 6.153667 35.799309 0.080611 0.973004 0.216254 
18.835131 6.179552 35.756580 0.256006 0.960195 0.111740 
18.831690 6.158389 35.641609 0.410308 0.909705 0.063900 
18.871840 6.173559 35.582409 0.259111 0.952672 0.158989 
18.880581 6.162531 35.482929 0.489629 0.859469 0.146888 
18.918100 6.175507 35.420319 0.323054 0.915703 0.239009 
18.937710 6.173536 35.334721 0.351159 0.883626 0.309666 
18.994370 6.202468 35.296631 0.101062 0.921242 0.375632 
19.013720 6.200274 35.210659 0.112797 0.929738 0.350520 
19.083139 6.239853 35.188961 0.032634 0.937419 0.346670 
19.106680 6.241152 35.108330 0.186967 0.947333 0.260006 
19.150850 6.259655 35.054180 0.420833 0.896112 0.141008 
19.150009 6.240593 34.942131 0.335639 0.903724 0.265761 
19.205490 6.268537 34.902512 0.415643 0.872761 0.255987 
19.200140 6.245691 34.784550 0.374849 0.921531 0.101342 
19.244450 6.264301 34.730518 0.219799 0.958590 0.181090 
19.258640 6.257760 34.637650 0.238414 0.947315 0.213899 
19.309179 6.281574 34.591640 0.175402 0.947066 0.268887 
19.327040 6.278080 34.503429 0.154613 0.933028 0.324890 
19.386560 6.309401 34.469009 0.230665 0.928938 0.289599 
19.393921 6.297124 34.367180 0.373274 0.913542 0.161579 
19.433531 6.311797 34.307011 0.373779 0.902762 0.212863 
19.449900 6.307047 34.216770 0.542868 0.806465 0.234328 
19.491890 6.323703 34.159641 0.482608 0.826712 0.289199 
19.507429 6.318245 34.068260 0.436550 0.848933 0.297887 
19.558479 6.342470 34.022820 0.250694 0.911034 0.327368 
19.571621 6.334995 33.928268 0.288573 0.930625 0.225085 
19.620260 6.357203 33.879700 0.145019 0.954073 0.262133 
19.639950 6.355199 33.793579 0.169716 0.954750 0.244230 
19.692440 6.380628 33.750000 0.206510 0.950100 0.233802 
19.703621 6.371485 33.652760 0.330725 0.911040 0.246227 
19.756321 6.397093 33.609440 0.338287 0.916637 0.212929 
19.758499 6.380405 33.500439 0.547989 0.835791 0.034070 
19.786680 6.385476 33.425201 0.322561 0.929278 0.179989 
19.809580 6.386127 33.343071 0.489283 0.869669 0.065411 
19.825251 6.380713 33.251480 0.156740 0.954015 0.255516 
19.874670 6.403561 33.203831 0.058895 0.920596 0.386050 
19.926519 6.428441 33.159340 0.096306 0.937506 0.334378 
19.953449 6.432449 33.082359 0.227357 0.928079 0.294920 
20.001490 6.454135 33.032890 0.143626 0.950293 0.276250 
20.025299 6.455526 32.951809 0.259645 0.943898 0.204063 
20.068470 6.473126 32.895962 0.279175 0.943640 0.177776 
20.074221 6.459369 32.791222 0.369620 0.925435 0.083370 
20.116510 6.476225 32.734180 0.095241 0.982459 0.160323 
20.130890 6.469689 32.640640 0.278094 0.954681 0.106061 
20.167089 6.481435 32.575611 0.023601 0.945668 0.324276 
20.212420 6.500841 32.522530 0.127764 0.888844 0.440037 
20.265850 6.527036 32.480042 0.156816 0.911188 0.380980 
20.292789 6.531009 32.402840 0.324963 0.902800 0.281693 
20.330629 6.544127 32.339909 0.410388 0.890449 0.196680 
20.344419 6.537062 32.245419 0.455136 0.864867 0.211796 
20.384420 6.551986 32.185280 0.345172 0.859757 0.376397 
15.907730 5.405740 42.595940 0.457192 0.887714 0.054224 
15.919850 5.398055 42.504021 0.291356 0.887964 0.355853 
15.982600 5.432095 42.473820 0.272247 0.875180 0.399926 
15.996830 5.426137 42.384418 0.279699 0.890074 0.359911 
16.054029 5.455596 42.347439 0.384589 0.878830 0.282400 
16.060150 5.442945 42.248089 0.283636 0.946639 0.153053 
16.099810 5.457948 42.189678 0.309762 0.941434 0.133225 
16.109150 5.447936 42.094181 0.158065 0.975654 0.152032 
16.150419 5.464251 42.037689 0.308023 0.943776 0.120037 
16.161249 5.455460 41.943951 0.166178 0.937816 0.304771 
16.219980 5.486184 41.908821 0.173339 0.929252 0.326257 
16.247181 5.490886 41.835072 0.077182 0.945807 0.315424 
16.295679 5.513162 41.787411 0.405103 0.902692 0.145051 
16.298429 5.497680 41.683632 0.296952 0.934715 0.195263 
16.343691 5.517287 41.631981 0.409904 0.901250 0.140452 
16.349529 5.504346 41.531929 0.334826 0.916757 0.217825 
16.393820 5.523135 41.479031 0.380642 0.892162 0.243225 
16.415119 5.522944 41.397900 0.228352 0.927397 0.296294 
16.458410 5.540914 41.343769 0.215202 0.885419 0.411973 
16.504520 5.561203 41.293098 0.137627 0.928473 0.344959 
16.533119 5.567033 41.220879 0.207759 0.909248 0.360700 
16.587271 5.593972 41.180111 0.173085 0.931342 0.320381 
16.605120 5.590912 41.094620 0.257536 0.936188 0.239223 
16.655140 5.614429 41.048740 0.282486 0.945554 0.161645 
16.650459 5.592740 40.935410 0.437799 0.896220 0.071565 
16.690451 5.607970 40.877140 0.381398 0.912646 0.147014 
16.697760 5.596172 40.778500 0.498590 0.858152 0.122405 
16.733360 5.607766 40.714771 0.277000 0.912784 0.300159 
16.762150 5.613724 40.642609 0.290117 0.877492 0.381890 
16.816681 5.640961 40.602249 0.261345 0.891173 0.370823 
16.834740 5.638039 40.516781 0.321776 0.882783 0.342279 
16.891109 5.666800 40.478699 0.276273 0.905733 0.321434 
16.897270 5.654022 40.378441 0.303573 0.934554 0.185611 
16.944201 5.674968 40.328651 0.340189 0.920584 0.191822 
16.951780 5.663352 40.230080 0.308056 0.927659 0.211070 
17.001150 5.686319 40.183300 0.227346 0.949609 0.215772 
17.011061 5.676616 40.087540 0.418482 0.898888 0.129897 
17.045870 5.687529 40.022671 0.387522 0.909801 0.148621 
17.053169 5.675653 39.923599 0.566638 0.813290 0.132219 
17.088579 5.687051 39.859409 0.338290 0.904189 0.260773 
17.108709 5.685792 39.776218 0.336616 0.896961 0.286620 
17.159760 5.710136 39.731449 0.158123 0.934309 0.319473 
17.186001 5.713927 39.655811 0.248733 0.886752 0.389618 
17.240879 5.741440 39.615799 0.312275 0.881903 0.353172 
17.255251 5.735395 39.525341 0.350130 0.887206 0.300458 
17.306219 5.759674 39.480469 0.333305 0.901666 0.275511 
17.312639 5.747026 39.380032 0.369443 0.922115 0.114961 
17.349369 5.759489 39.317348 0.293031 0.946049 0.138293 
17.358589 5.749155 39.220329 0.326956 0.927659 0.180413 
17.407480 5.771693 39.172810 0.163666 0.959124 0.230857 
17.418819 5.763104 39.078369 0.286646 0.919342 0.269526 
17.469910 5.787467 39.033569 0.342193 0.906647 0.246772 
17.478201 5.776335 38.935249 0.259212 0.901400 0.346825 
17.546129 5.814665 38.911518 0.296291 0.876931 0.378423 
17.557970 5.806465 38.817570 0.236781 0.914675 0.327572 
17.613029 5.834116 38.777729 0.301482 0.886381 0.351336 
17.632490 5.832236 38.693291 0.337043 0.902735 0.267342 
17.673389 5.848139 38.635700 0.466109 0.871558 0.152085 
17.677191 5.833240 38.531528 0.347289 0.919080 0.186229 
17.722570 5.852861 38.479530 0.342369 0.911859 0.226487 
17.734190 5.844446 38.385109 0.217131 0.940067 0.262922 
17.784370 5.868040 38.339100 0.233859 0.928727 0.287709 
17.807199 5.868921 38.258709 0.107326 0.927055 0.359235 
17.864840 5.898711 38.222069 0.146416 0.944701 0.293431 
17.893190 5.904176 38.148590 0.216231 0.963031 0.160673 
17.916479 5.905429 38.068710 0.421068 0.902060 0.094809 
17.939270 5.906264 37.988178 0.269665 0.944286 0.188693 
17.971411 5.914859 37.919392 0.417343 0.901574 0.113970 
17.985371 5.908351 37.827671 0.336767 0.901483 0.271877 
18.035480 5.931878 37.781509 0.390826 0.895601 0.212492 
18.025551 5.905489 37.659550 0.362789 0.929939 0.059975 
18.063959 5.919282 37.598591 0.221899 0.957804 0.182680 
18.086700 5.920048 37.517811 0.122177 0.944791 0.304043 
18.144350 5.949840 37.481140 0.096385 0.947631 0.304477 
18.169121 5.952284 37.402889 0.122687 0.946747 0.297687 
18.216230 5.973310 37.352890 0.333428 0.919966 0.206129 
18.228861 5.965644 37.259220 0.268032 0.947296 0.175469 
18.267210 5.979370 37.198078 0.479121 0.871462 0.104865 
18.272699 5.965759 37.095299 0.483265 0.825199 0.292408 
18.321449 5.988131 37.047310 0.376120 0.838362 0.394567 
18.345600 5.990036 36.968121 0.207985 0.875958 0.435248 
18.407089 6.023019 36.936298 0.069182 0.874461 0.480138 
18.452021 6.042218 36.883469 0.122228 0.955403 0.268821 
18.473820 6.042152 36.801239 0.213351 0.962208 0.169226 
18.516470 6.059450 36.745480 0.070375 0.982500 0.172453 
18.534519 6.056253 36.658428 0.298394 0.947920 0.111395 
18.571329 6.068686 36.595230 0.166519 0.974015 0.153512 
18.588631 6.064849 36.507141 0.435394 0.900074 -0.017289 
18.598270 6.054631 36.409279 0.288424 0.957016 0.030530 
18.618759 6.053442 36.325180 0.410053 0.911883 0.018041 
18.631950 6.046166 36.231750 0.348070 0.918400 0.188117 
18.672520 6.061707 36.173210 0.273238 0.923412 0.269538 
18.698721 6.065266 36.096321 0.137161 0.904471 0.403880 
18.760370 6.098379 36.064678 0.079643 0.910563 0.405626 
18.793890 6.108030 35.997101 -0.063152 0.945791 0.318576 
18.846210 6.133371 35.953571 0.091047 0.952054 0.292069 
18.884279 6.146816 35.891788 0.150765 0.968659 0.197408 
18.904970 6.145766 35.807758 0.515677 0.855183 -0.052335 
18.901400 6.124462 35.692619 0.311770 0.943894 0.108917 
18.943529 6.141287 35.635979 0.417408 0.903280 0.099277 
18.941540 6.121287 35.522758 0.363548 0.914445 0.177830 
18.990370 6.143695 35.474670 0.280808 0.939871 0.194397 
18.992649 6.127252 35.366852 0.182334 0.922788 0.339437 
19.068090 6.171867 35.352890 0.013025 0.921916 0.387170 
19.103010 6.182659 35.286911 -0.014499 0.928742 0.370444 
19.155199 6.207870 35.243118 0.271337 0.914930 0.298796 
19.178829 6.209236 35.162621 0.326873 0.921466 0.209890 
19.208500 6.215632 35.089851 0.586396 0.807379 0.065411 
19.214911 6.202595 34.987122 0.302152 0.920257 0.248660 
19.260880 6.222610 34.935291 0.405833 0.887247 0.219302 
19.278070 6.218570 34.846371 0.205696 0.961415 0.182677 
19.316561 6.232320 34.784859 0.320022 0.939377 0.123109 
19.326960 6.222594 34.687119 0.153126 0.964854 0.213565 
19.377480 6.246398 34.641102 0.157879 0.963709 0.215264 
19.400070 6.246845 34.559010 0.049663 0.957337 0.284674 
19.452450 6.272204 34.515388 0.222427 0.957128 0.185562 
19.468861 6.267481 34.425282 0.212141 0.969989 0.118818 
19.500059 6.275119 34.354252 0.454955 0.890184 0.024239 
19.500000 6.256608 34.242760 0.494966 0.849061 0.184671 
19.539650 6.271305 34.182610 0.539594 0.807446 0.238472 
19.557369 6.267654 34.094051 0.355035 0.813150 0.461235 
19.621189 6.302575 34.065182 0.244757 0.860984 0.445871 
19.642370 6.301808 33.981049 0.169346 0.929755 0.326922 
19.698170 6.330014 33.941792 0.163943 0.935899 0.311794 
19.719870 6.329684 33.858299 0.135380 0.966470 0.218192 
19.760771 6.345418 33.799702 0.335883 0.927983 0.161341 
19.778061 6.341376 33.710419 0.305312 0.929751 0.205788 
19.814119 6.353045 33.645481 0.546646 0.831006 0.102989 
19.815180 6.335404 33.535030 0.427886 0.892868 0.140355 
19.856520 6.351491 33.476921 0.282581 0.939982 0.191266 
19.870090 6.344316 33.382660 0.230845 0.952528 0.198499 
19.926279 6.372841 33.343861 0.063758 0.967096 0.246294 
19.942711 6.368045 33.253250 0.153215 0.948972 0.275639 
19.997770 6.395624 33.212971 0.158018 0.938814 0.306038 
20.023491 6.398606 33.134430 0.116185 0.941674 0.315834 
20.076929 6.424823 33.092030 0.331993 0.916178 0.224496 
20.086580 6.414332 32.992470 0.424767 0.871295 0.245801 
20.131269 6.433213 32.938641 0.424598 0.869097 0.253746 
20.145670 6.426683 32.845200 0.221621 0.940328 0.258200 
20.197990 6.451960 32.801311 0.214248 0.948451 0.233536 
20.209890 6.443326 32.704540 0.143610 0.979665 0.140114 
20.254490 6.462123 32.650539 0.130979 0.972968 0.190203 
20.274950 6.460663 32.564911 0.161586 0.926328 0.340304 
20.333389 6.491065 32.529011 0.158664 0.927820 0.337604 
20.358320 6.493352 32.449200 0.257338 0.929996 0.262457 
20.401150 6.510654 32.392830 0.385539 0.909883 0.153206 
20.406040 6.496102 32.286671 0.425919 0.891636 0.153551 
20.443951 6.509262 32.223801 0.385286 0.864484 0.322835 
15.969500 5.365830 42.635620 0.421677 0.906605 0.016017 
15.985180 5.361062 42.548050 0.225188 0.914673 0.335654 
16.037901 5.386839 42.505630 0.334460 0.854837 0.396725 
16.069220 5.394964 42.437099 0.310847 0.877925 0.364173 
16.105961 5.407561 42.375172 0.510214 0.802612 0.309024 
16.137671 5.416000 42.307079 0.253799 0.921903 0.292713 
16.169649 5.424662 42.239300 0.317778 0.901845 0.292734 
16.213869 5.443424 42.186470 0.272385 0.934164 0.230530 
16.221430 5.431919 42.088779 0.288022 0.952609 0.097876 
16.261169 5.446975 42.030441 0.024548 0.977017 0.211741 
16.286579 5.450202 41.954540 0.119050 0.959368 0.255813 
16.341320 5.477640 41.914551 0.110375 0.970196 0.215723 
16.349689 5.466787 41.817730 0.361254 0.925021 0.117613 
16.394859 5.486318 41.765999 0.224160 0.959019 0.173309 
16.403820 5.475937 41.669811 0.483879 0.873990 0.044741 
16.430849 5.480480 41.595779 0.267286 0.948708 0.168852 
16.453739 5.481595 41.516628 0.413585 0.890602 0.189144 
16.487370 5.491581 41.450661 0.202052 0.934518 0.293004 
16.520849 5.501444 41.384491 0.227353 0.872364 0.432773 
16.576490 5.529621 41.345570 0.197215 0.886443 0.418719 
16.601721 5.532660 41.269218 0.195013 0.900238 0.389282 
16.657290 5.560772 41.230209 0.180836 0.917717 0.353685 
16.678431 5.560422 41.148788 0.219685 0.943048 0.249796 
16.720409 5.577295 41.093021 0.437698 0.889414 0.131768 
16.723499 5.562011 40.989281 0.467859 0.882780 0.042521 
16.746481 5.563172 40.910042 0.513107 0.856489 0.056100 
16.754601 5.552031 40.812420 0.426617 0.882209 0.199262 
16.797291 5.569481 40.757450 0.306946 0.903511 0.299085 
16.820230 5.570587 40.678059 0.322688 0.856412 0.403027 
16.872360 5.595845 40.634750 0.368754 0.850037 0.376109 
16.891239 5.593590 40.550301 0.270290 0.864458 0.423858 
16.950760 5.624967 40.516140 0.288073 0.871718 0.396387 
16.974251 5.626509 40.437340 0.338857 0.918470 0.203933 
17.002729 5.632186 40.364712 0.375272 0.910526 0.173531 
17.028070 5.635266 40.288181 0.130859 0.955968 0.262679 
17.072460 5.654112 40.235241 0.366315 0.920542 0.135706 
17.076111 5.639211 40.131729 0.308228 0.942458 0.129494 
17.116350 5.654609 40.073601 0.385097 0.920495 0.066252 
17.110729 5.632022 39.958511 0.381346 0.905742 0.184950 
17.163679 5.657944 39.916130 0.179872 0.927326 0.328197 
17.188061 5.660195 39.838230 0.211520 0.939642 0.268945 
17.230490 5.677399 39.782768 0.295016 0.925827 0.236243 
17.246401 5.672621 39.694279 0.260375 0.905738 0.334430 
17.299271 5.698481 39.651798 0.331746 0.895884 0.295528 
17.314051 5.692758 39.561852 0.238736 0.917454 0.318250 
17.367559 5.719138 39.520149 0.369014 0.894091 0.253831 
17.382919 5.713891 39.430870 0.276639 0.938779 0.205342 
17.423550 5.729595 39.373100 0.379423 0.916847 0.124216 
17.428120 5.715375 39.270271 0.171884 0.960296 0.219744 
17.484140 5.743838 39.231670 0.292576 0.933030 0.209415 
17.496111 5.735751 39.138031 0.223934 0.957041 0.184192 
17.534889 5.749910 39.077881 0.345030 0.924538 0.161814 
17.552120 5.746181 38.990749 0.173691 0.945450 0.275600 
17.595221 5.763918 38.935970 0.371131 0.875437 0.309632 
17.628611 5.773587 38.869011 0.176962 0.912925 0.367767 
17.670860 5.790614 38.813141 0.361305 0.880078 0.308094 
17.700491 5.797159 38.741451 0.262643 0.930581 0.255026 
17.730909 5.804359 38.670731 0.514731 0.851980 0.095826 
17.744579 5.797647 38.578960 0.239555 0.950050 0.200047 
17.783920 5.812241 38.519379 0.243165 0.933092 0.264971 
17.822081 5.825864 38.458321 0.073099 0.959707 0.271328 
17.855339 5.835412 38.391079 0.062657 0.943980 0.324001 
17.916281 5.867952 38.358631 0.111502 0.936164 0.333414 
17.935659 5.865952 38.273899 0.387546 0.898580 0.205821 
17.974630 5.880244 38.213821 0.333302 0.921638 0.198727 
17.985800 5.871408 38.118690 0.459945 0.883291 0.090814 
18.015539 5.878016 38.046928 0.336696 0.923261 0.184999 
18.037121 5.877829 37.964859 0.556546 0.830626 0.017791 
18.041790 5.863570 37.861408 0.302096 0.910171 0.283420 
18.095150 5.889810 37.819382 0.300596 0.912538 0.277339 
18.119431 5.891856 37.740631 0.158582 0.977632 0.138158 
18.146509 5.896224 37.665379 0.255482 0.958671 0.125215 
18.174150 5.901051 37.590809 0.053973 0.965033 0.256512 
18.217091 5.918617 37.535580 0.221107 0.930510 0.291997 
18.254250 5.931359 37.473011 0.166953 0.948574 0.268948 
18.282320 5.936537 37.398930 0.326118 0.920211 0.216467 
18.320770 5.950354 37.337978 0.347686 0.926716 0.142518 
18.324200 5.935014 37.232639 0.625376 0.777371 -0.067818 
18.332809 5.923972 37.133801 0.280056 0.923379 0.262565 
18.382771 5.947361 37.087372 0.203238 0.886487 0.415734 
18.427650 5.966523 37.034500 0.052317 0.898665 0.435505 
18.469721 5.983344 36.978062 0.158629 0.841270 0.516819 
18.531349 6.016452 36.946449 0.108349 0.898354 0.425700 
18.554270 6.017312 36.865669 0.145266 0.954771 0.259442 
18.603960 6.040477 36.818890 0.282458 0.942641 0.177895 
18.605301 6.023343 36.710602 0.378512 0.915722 0.134838 
18.647680 6.040414 36.654499 0.336620 0.922313 0.189804 
18.656019 6.029099 36.555031 0.452963 0.886762 0.092073 
18.692360 6.041129 36.491211 0.272065 0.954056 0.125530 
18.697990 6.027544 36.388199 0.481004 0.872568 -0.085211 
18.704929 6.015033 36.286800 0.199756 0.971381 0.128515 
18.745800 6.030828 36.228680 0.160837 0.963687 0.213165 
18.776159 6.037847 36.157108 0.044633 0.937155 0.346047 
18.829140 6.063734 36.114422 -0.008094 0.859972 0.510277 
18.895451 6.100753 36.088791 0.160669 0.894439 0.417330 
