18.595860 2.436448 26.794809 0.479769 0.874041 0.076644 
18.616199 2.434038 26.705931 0.351642 0.921715 0.163674 
18.643801 2.437821 26.626690 0.644409 0.764385 0.021290 
18.643620 2.417853 26.510389 0.491242 0.812862 0.312950 
18.701040 2.447126 26.470840 0.374551 0.859264 0.348392 
18.710711 2.435559 26.367580 0.401134 0.905775 0.136617 
18.753090 2.451967 26.307940 0.318207 0.945660 0.066868 
18.745661 2.425763 26.181770 0.344751 0.938070 0.034215 
18.786539 2.440874 26.120070 0.065897 0.950758 0.302848 
18.827110 2.455719 26.057940 0.061237 0.856725 0.512126 
18.889441 2.489182 26.024910 0.210034 0.872776 0.440622 
18.913380 2.489794 25.940531 0.221439 0.912827 0.343091 
18.973000 2.520940 25.903879 0.442844 0.874111 0.199547 
18.960609 2.490443 25.770781 0.562903 0.811454 0.157105 
19.010349 2.513126 25.720869 0.367714 0.872150 0.322709 
19.026440 2.506990 25.625830 0.514301 0.832123 0.207525 
19.062380 2.517848 25.557381 0.362703 0.913602 0.183786 
19.078659 2.511870 25.462530 0.475336 0.878859 -0.040770 
19.089800 2.501475 25.360729 0.144601 0.978324 0.148231 
19.132450 2.518068 25.301210 0.083560 0.950513 0.299237 
19.179440 2.538378 25.247520 -0.076939 0.926402 0.368591 
19.225870 2.558213 25.193081 0.179192 0.920565 0.347060 
19.272921 2.578572 25.139460 0.230958 0.949265 0.213436 
19.279770 2.564478 25.031731 0.570774 0.820405 -0.033965 
19.296560 2.558890 24.937321 0.347228 0.914183 0.209051 
19.334101 2.571082 24.870819 0.401988 0.865598 0.298574 
19.371901 2.583500 24.804670 0.164858 0.939314 0.300850 
19.406429 2.593110 24.734091 0.483305 0.874516 0.040472 
19.402901 2.570074 24.612120 0.341843 0.936829 0.074124 
19.440950 2.582692 24.546221 0.321478 0.938042 0.129340 
19.456039 2.575607 24.449289 0.132711 0.916165 0.378191 
19.522890 2.612929 24.422279 0.040497 0.882811 0.467979 
19.561529 2.626056 24.357161 0.167207 0.934140 0.315317 
19.603260 2.641815 24.296181 0.475199 0.876964 0.071555 
19.592819 2.612796 24.164560 0.462946 0.874238 0.146253 
19.641411 2.634443 24.112829 0.320949 0.908403 0.267948 
19.656731 2.627527 24.016010 0.296730 0.890647 0.344528 
19.717699 2.659801 23.981039 0.209749 0.930045 0.301698 
19.723801 2.644945 23.871639 0.346678 0.923424 0.164631 
19.775061 2.668883 23.823490 0.253329 0.944459 0.209337 
19.779890 2.652922 23.712280 0.270554 0.950807 0.150889 
19.829821 2.675708 23.662291 0.091611 0.962464 0.255483 
19.853720 2.676122 23.576910 0.129336 0.956833 0.260274 
19.912630 2.706625 23.539129 0.189778 0.959028 0.210357 
19.919041 2.691998 23.429899 0.498382 0.863667 0.075467 
19.953899 2.701819 23.359360 0.318750 0.923598 0.212990 
19.976379 2.700989 23.271919 0.408124 0.865752 0.289671 
20.029461 2.726476 23.226170 0.232996 0.890163 0.391565 
20.053949 2.727361 23.141411 0.507275 0.861590 0.018305 
20.056379 2.709270 23.026529 0.215172 0.969090 0.120691 
20.103910 2.729975 22.973160 0.296626 0.948076 0.114741 
20.106899 2.712353 22.858959 0.144779 0.940779 0.306551 
20.175220 2.750941 22.833960 0.038520 0.882690 0.468375 
20.216999 2.766690 22.772699 0.134281 0.931961 0.336774 
20.255590 2.779682 22.707050 0.519226 0.854272 0.024973 
20.243641 2.749171 22.572241 0.502981 0.863453 0.038206 
20.279640 2.759928 22.502991 0.372376 0.921146 0.113255 
20.290541 2.749063 22.399330 0.275297 0.938266 0.209446 
20.346319 2.776851 22.357149 0.123385 0.956309 0.265046 
20.351240 2.760825 22.245220 0.167262 0.950253 0.262760 
20.406050 2.787773 22.201679 -0.043990 0.873330 0.485139 
15.595480 1.793583 34.567490 0.376635 0.925595 0.037685 
15.608840 1.785818 34.472969 0.318303 0.915745 0.245141 
15.664240 1.813512 34.431549 0.241252 0.918005 0.314745 
15.677080 1.805302 34.336330 0.492460 0.865358 0.092940 
15.706030 1.810670 34.261429 0.384606 0.918623 0.090613 
15.713630 1.798017 34.159481 0.545642 0.837649 -0.024872 
15.731340 1.793891 34.070290 0.245468 0.955193 0.165382 
15.763970 1.802354 33.999962 0.288345 0.915481 0.280627 
15.808660 1.821001 33.944920 0.138378 0.904328 0.403785 
15.851100 1.837740 33.887001 0.304402 0.882929 0.357457 
15.890240 1.851696 33.824902 0.263368 0.938963 0.221327 
15.906020 1.845917 33.733120 0.474170 0.872771 0.115903 
15.939150 1.854780 33.663330 0.164351 0.944761 0.283575 
15.976600 1.867298 33.599018 0.254427 0.916113 0.309846 
16.020620 1.885361 33.543049 0.226319 0.937737 0.263493 
16.038900 1.881674 33.454330 0.347880 0.919573 0.182663 
16.081810 1.898792 33.396919 0.262008 0.957323 0.122004 
16.077860 1.876306 33.279819 0.420373 0.903711 -0.081204 
16.097990 1.874158 33.193340 0.180773 0.979778 0.085770 
16.121679 1.875021 33.111370 0.415908 0.906226 0.075986 
16.143730 1.874484 33.027260 0.149334 0.954189 0.259273 
16.190929 1.895215 32.975220 0.341788 0.929174 0.140772 
16.197300 1.881416 32.871059 0.212596 0.939360 0.269084 
16.249310 1.906206 32.825119 0.170177 0.883824 0.435770 
16.302111 1.931672 32.780220 0.145170 0.921160 0.361094 
16.326920 1.933453 32.699520 0.369740 0.882450 0.290816 
16.374710 1.954675 32.648201 0.234859 0.930138 0.282286 
16.393250 1.951145 32.559441 0.511408 0.859222 -0.014126 
16.401880 1.939215 32.457939 0.290081 0.950622 0.110324 
16.435341 1.948299 32.388210 0.473812 0.878802 0.056652 
16.436871 1.930340 32.277519 0.314920 0.903637 0.290285 
16.490801 1.956748 32.233978 0.288714 0.879025 0.379420 
16.523149 1.964882 32.162762 0.211422 0.938808 0.271921 
16.559940 1.976776 32.097229 0.323144 0.919627 0.223303 
16.591320 1.984079 32.024719 0.119865 0.937368 0.327069 
16.636440 2.003015 31.969851 0.203311 0.868936 0.451237 
16.686819 2.026415 31.921740 0.171032 0.891520 0.419452 
16.717340 2.032987 31.848089 0.401272 0.901423 0.162535 
16.744909 2.037048 31.770611 0.262080 0.964768 0.023184 
16.748131 2.020461 31.661739 0.462105 0.877304 -0.129605 
16.749821 2.002570 31.550850 0.215085 0.970924 0.105095 
16.794109 2.020786 31.494801 0.242224 0.953190 0.180990 
16.814091 2.018386 31.407400 0.140557 0.961384 0.236609 
16.861860 2.039557 31.355841 0.254695 0.952641 0.166147 
16.877750 2.033684 31.263109 0.253660 0.933691 0.252742 
16.929350 2.058092 31.216450 0.279926 0.923647 0.261760 
16.943689 2.050889 31.121651 0.271630 0.908737 0.316881 
17.000170 2.079448 31.081310 0.428212 0.854464 0.294154 
17.002359 2.061917 30.970720 0.385313 0.918232 0.091561 
17.035971 2.071055 30.900749 0.391508 0.918691 0.052233 
17.038139 2.053496 30.790039 0.393378 0.918373 0.042943 
17.071720 2.062594 30.719971 0.282757 0.948006 0.146060 
17.088791 2.057667 30.628469 0.268519 0.894569 0.357273 
17.151369 2.091393 30.595980 0.230182 0.907960 0.350179 
17.165510 2.083972 30.500641 0.335373 0.891924 0.303310 
17.222349 2.112816 30.460690 0.281934 0.900876 0.330053 
17.238029 2.106688 30.367270 0.227222 0.878047 0.421194 
17.302799 2.142272 30.337629 0.298248 0.860175 0.413699 
17.318760 2.136378 30.244530 0.276375 0.913594 0.298267 
17.370569 2.160952 30.198040 0.361630 0.912805 0.189764 
17.373461 2.143928 30.087851 0.313493 0.945795 0.084820 
17.414440 2.159287 30.027229 0.273581 0.959457 0.067790 
17.415230 2.140468 29.914221 0.286204 0.955200 0.075363 
17.455971 2.155613 29.853230 0.258243 0.959014 0.116632 
17.464121 2.143035 29.749720 0.485329 0.874327 0.003016 
17.487230 2.143181 29.665689 0.305523 0.936240 0.173523 
17.513729 2.146197 29.586040 0.515348 0.825960 0.228487 
17.550871 2.158266 29.520281 0.240034 0.901025 0.361301 
17.590660 2.172580 29.457939 0.274307 0.902384 0.332354 
17.627171 2.184110 29.391319 0.298095 0.934677 0.193693 
17.645069 2.179790 29.300329 0.510269 0.859948 -0.010673 
17.659639 2.172630 29.204941 0.235055 0.967978 0.088131 
17.688061 2.177254 29.127640 0.388305 0.918090 0.079565 
17.704960 2.172062 29.035219 0.145853 0.935551 0.321670 
17.765360 2.203912 28.999790 0.214141 0.936758 0.276818 
17.780279 2.197027 28.904720 0.109302 0.976659 0.184907 
17.830429 2.220150 28.855850 0.167854 0.977924 0.124455 
17.842430 2.210757 28.756861 0.054962 0.968249 0.243872 
17.900000 2.240203 28.717730 0.239566 0.915382 0.323549 
17.928591 2.244944 28.640490 0.197752 0.903145 0.381082 
17.975309 2.265132 28.587070 0.574331 0.793709 0.200423 
17.986830 2.255310 28.487329 0.401649 0.905598 0.136272 
18.016710 2.261142 28.411720 0.562403 0.826841 0.006092 
18.012190 2.237628 28.290760 0.406765 0.898136 0.167013 
18.056549 2.255797 28.234159 0.305992 0.910730 0.277379 
18.082251 2.258043 28.152950 0.194221 0.896775 0.397584 
18.141291 2.288721 28.115681 0.302710 0.896366 0.323875 
18.152700 2.278774 28.015570 0.261358 0.917287 0.300460 
18.206841 2.305277 27.971830 0.263105 0.899020 0.350056 
18.227690 2.303364 27.884109 0.225627 0.911079 0.345003 
18.286940 2.334228 27.847130 0.259027 0.917566 0.301626 
18.298849 2.324676 27.747530 0.186969 0.952384 0.240845 
18.351179 2.349627 27.701380 0.280599 0.948186 0.149025 
18.354650 2.332860 27.590549 0.237383 0.969341 0.063464 
18.394440 2.347101 27.527769 0.256667 0.963975 0.069812 
18.400299 2.332351 27.419991 0.316628 0.943289 0.099762 
18.440060 2.346565 27.357130 0.277598 0.952410 0.125916 
18.450460 2.335678 27.255289 0.358828 0.922152 0.144493 
18.493570 2.352739 27.196819 0.175695 0.956326 0.233604 
18.516279 2.352366 27.111250 0.218463 0.952395 0.212646 
18.569460 2.378024 27.066130 0.051358 0.961205 0.271010 
18.592670 2.378072 26.981180 0.163813 0.932626 0.321517 
18.650000 2.407280 26.941580 0.214213 0.936901 0.276278 
18.660660 2.396583 26.839870 0.388889 0.918036 0.077305 
18.692650 2.404119 26.766520 0.297614 0.951069 0.083030 
18.701290 2.391680 26.662029 0.623867 0.776180 -0.091288 
18.707050 2.376770 26.553659 0.302820 0.909429 0.285026 
18.761070 2.403138 26.509581 0.350784 0.875607 0.332058 
18.785709 2.404365 26.426310 0.225429 0.949375 0.218790 
18.821819 2.415404 26.358320 0.420634 0.905835 0.050303 
18.824051 2.397444 26.245060 0.211520 0.974436 0.075719 
18.863590 2.411406 26.181589 0.171302 0.960860 0.217725 
18.895090 2.418485 26.107361 0.072174 0.901739 0.426213 
18.958481 2.452865 26.075769 0.132006 0.896694 0.422509 
18.993410 2.462875 26.006109 0.300138 0.923557 0.238664 
19.015320 2.461732 25.918989 0.676620 0.735989 -0.022472 
19.016020 2.442415 25.803419 0.437025 0.868535 0.233785 
19.063280 2.462974 25.750191 0.448773 0.846770 0.285630 
19.081249 2.458439 25.657690 0.316285 0.884375 0.343285 
19.141350 2.489996 25.621670 0.316095 0.913208 0.257170 
19.138241 2.467380 25.500799 0.396061 0.916153 0.061633 
19.180189 2.483381 25.440390 0.117834 0.973287 0.197047 
19.204229 2.484021 25.355890 0.116212 0.937064 0.329251 
19.269051 2.519630 25.326210 0.097330 0.935286 0.340245 
19.283710 2.512219 25.229059 0.261378 0.914769 0.308023 
19.341709 2.541970 25.190189 0.296389 0.931799 0.209532 
19.341400 2.521712 25.072821 0.587869 0.808819 -0.014921 
19.365589 2.522460 24.988390 0.370615 0.912938 0.170847 
19.390791 2.524069 24.905291 0.380728 0.850787 0.362225 
19.445290 2.550810 24.861670 0.272507 0.879813 0.389448 
19.465771 2.548358 24.772150 0.498207 0.863184 0.081874 
19.490299 2.549373 24.688049 0.185697 0.975715 0.116178 
19.515499 2.550967 24.604851 0.299182 0.950136 0.087930 
19.542179 2.553819 24.523590 -0.016484 0.954244 0.298574 
19.599430 2.582912 24.483641 0.154173 0.916007 0.370353 
19.637819 2.595818 24.418200 0.280897 0.927768 0.245649 
19.658791 2.593752 24.329149 0.625263 0.779486 -0.038058 
19.659901 2.574620 24.213169 0.274058 0.948528 0.158703 
19.705330 2.593556 24.157169 0.400560 0.896752 0.188115 
19.723419 2.588993 24.064100 0.202763 0.888355 0.411962 
19.790220 2.626294 24.037069 0.309117 0.892259 0.329121 
19.788910 2.605053 23.917629 0.234020 0.955162 0.181383 
19.840691 2.629440 23.870199 0.273100 0.944449 0.182847 
19.857901 2.624103 23.775820 0.094535 0.969939 0.224234 
19.911510 2.650057 23.730860 0.106202 0.966214 0.234846 
19.937269 2.652066 23.648041 0.095030 0.970498 0.221593 
19.978840 2.667657 23.586679 0.405438 0.911334 0.071351 
19.977110 2.646008 23.466391 0.406644 0.906262 0.115453 
20.018450 2.661397 23.404680 0.422935 0.894315 0.146038 
20.024920 2.646785 23.295441 0.411366 0.832737 0.370577 
20.084669 2.678013 23.258789 0.300087 0.847174 0.438457 
20.110540 2.680084 23.175940 0.437891 0.882826 0.169914 
20.143391 2.688149 23.102560 0.193645 0.965683 0.173086 
20.166910 2.688189 23.016451 0.377744 0.914763 0.143241 
20.204330 2.700180 22.949270 0.035023 0.958694 0.282276 
20.242550 2.712866 22.883169 0.107765 0.909185 0.402207 
20.303120 2.744797 22.847630 0.186282 0.936820 0.296087 
20.309851 2.730354 22.738440 0.548611 0.831703 -0.085421 
20.318520 2.717569 22.631840 0.238923 0.969359 0.057081 
20.350599 2.724944 22.557240 0.399152 0.916368 0.030796 
20.358410 2.711405 22.449369 0.140871 0.953880 0.265083 
20.422270 2.746162 22.418280 0.287886 0.936717 0.199207 
20.427561 2.730428 22.306860 0.320411 0.945505 0.057934 
15.666700 1.759901 34.619289 0.506248 0.861069 -0.047672 
15.671710 1.745076 34.514240 0.360441 0.838287 0.409094 
15.725010 1.771005 34.470188 0.417444 0.827414 0.375669 
15.739730 1.764362 34.377338 0.430915 0.882482 0.188512 
15.777400 1.777089 34.313499 0.386315 0.913890 0.124766 
15.781110 1.761138 34.206638 0.332768 0.938360 0.093518 
15.823820 1.778110 34.149120 0.191334 0.970060 0.149585 
15.834560 1.768082 34.051090 0.290232 0.944886 0.151512 
15.873620 1.781968 33.988911 0.180707 0.938366 0.294644 
15.906180 1.790357 33.918480 0.227520 0.901410 0.368368 
15.958510 1.815459 33.873131 0.355071 0.906660 0.227797 
15.965070 1.801868 33.769650 0.424834 0.879718 0.213569 
16.013290 1.823490 33.719051 0.367393 0.873932 0.318223 
16.031460 1.819704 33.630249 0.457353 0.802000 0.384219 
16.085100 1.845899 33.586529 0.411407 0.826872 0.383440 
16.099890 1.839246 33.493370 0.318679 0.895443 0.310847 
16.152861 1.864878 33.448792 0.290349 0.929284 0.228318 
16.159790 1.851562 33.345558 0.359789 0.932582 0.029028 
16.188801 1.856922 33.270420 0.299888 0.952785 0.047620 
16.194540 1.842591 33.165588 0.288564 0.952595 0.096401 
16.237379 1.859632 33.108021 0.111560 0.973558 0.199346 
16.257330 1.857312 33.021240 0.336022 0.933427 0.125710 
16.294930 1.869923 32.956959 0.191141 0.966097 0.173556 
16.312519 1.865585 32.867088 0.303438 0.887861 0.345874 
16.368931 1.894111 32.826809 0.369561 0.842036 0.392937 
16.388340 1.891315 32.739231 0.363730 0.852679 0.375018 
16.441710 1.917269 32.695068 0.389859 0.857506 0.335700 
16.453529 1.908028 32.597710 0.558143 0.826827 0.069522 
16.480141 1.911312 32.519249 0.367822 0.920583 0.131277 
16.496799 1.906154 32.428001 0.461113 0.885484 0.057390 
16.521311 1.907649 32.346790 0.144313 0.969416 0.198512 
16.556690 1.918346 32.279491 0.254590 0.922320 0.290705 
16.598730 1.934687 32.220718 0.238315 0.936232 0.258216 
16.620729 1.934035 32.136211 0.423067 0.874966 0.235477 
16.661579 1.949357 32.075871 0.342449 0.874320 0.343938 
16.689920 1.954075 31.999460 0.353996 0.782383 0.512410 
16.752291 1.987648 31.966789 0.193861 0.830196 0.522679 
16.782101 1.993605 31.892229 0.398125 0.870929 0.288063 
16.822069 2.008177 31.830740 0.390592 0.909851 0.140036 
16.820570 1.987565 31.715799 0.428312 0.902678 -0.041483 
16.845619 1.989472 31.635019 0.182229 0.980234 0.077032 
16.863319 1.985131 31.544729 0.169690 0.965736 0.196364 
16.919519 2.013461 31.504080 0.137728 0.963358 0.230156 
16.932461 2.005076 31.407600 0.413398 0.910549 0.001564 
16.948219 1.999077 31.314711 0.170853 0.964536 0.201195 
16.991859 2.016733 31.257790 0.401396 0.903824 0.148270 
17.005989 2.009340 31.162729 0.353579 0.894434 0.273807 
17.048429 2.025978 31.104240 0.483300 0.816623 0.315511 
17.082970 2.035900 31.035521 0.241399 0.938717 0.246044 
17.110571 2.039928 30.957790 0.405677 0.913789 0.020410 
17.114790 2.024086 30.849739 0.208506 0.977170 0.040792 
17.147730 2.032642 30.778870 0.226651 0.971666 0.067043 
17.164160 2.027162 30.686569 0.097684 0.963629 0.248752 
17.216789 2.052437 30.641190 0.260527 0.941116 0.215466 
17.233669 2.047324 30.549400 0.267224 0.921413 0.282114 
17.281410 2.068447 30.497660 0.393857 0.864343 0.312710 
17.307261 2.070955 30.417471 0.297795 0.843177 0.447628 
17.362440 2.098393 30.375380 0.363248 0.774249 0.518256 
17.400311 2.111121 30.310801 0.249891 0.896764 0.365196 
17.434231 2.120474 30.241039 0.449176 0.873250 0.188879 
17.458281 2.121437 30.158421 0.170917 0.973038 0.154870 
17.487289 2.126609 30.082230 0.383129 0.923326 0.026097 
17.497841 2.116073 29.981951 0.170935 0.982182 0.078099 
17.531240 2.124972 29.911421 0.355744 0.934583 -0.000930 
17.530149 2.104511 29.795870 0.336816 0.941257 0.024284 
17.563810 2.113621 29.725620 0.281975 0.957137 0.066175 
17.571409 2.100546 29.621309 0.427444 0.880630 0.204410 
17.618870 2.121395 29.569031 0.188943 0.893918 0.406461 
17.655621 2.133126 29.502760 0.318322 0.855806 0.407758 
17.706150 2.156586 29.454479 0.289804 0.916947 0.274267 
17.710329 2.140572 29.345560 0.436201 0.898198 0.054494 
17.744869 2.150406 29.276320 0.259616 0.958744 0.115797 
17.756081 2.140366 29.176510 0.330884 0.940466 0.077713 
17.791281 2.150754 29.108089 0.033971 0.960911 0.274765 
17.832790 2.166512 29.047920 0.098831 0.938076 0.332032 
17.887871 2.193843 29.005550 0.092697 0.958001 0.271371 
17.906509 2.190110 28.915359 0.232179 0.966405 0.110244 
17.943239 2.201793 28.848881 0.170538 0.977851 0.121342 
17.957239 2.194094 28.752520 0.350652 0.904630 0.242255 
18.010710 2.220044 28.708010 0.311377 0.903390 0.294840 
18.020540 2.208776 28.606100 0.562552 0.808667 0.172023 
18.062180 2.224629 28.545990 0.378137 0.899328 0.219595 
18.074789 2.215714 28.447651 0.544834 0.838374 -0.016877 
18.087919 2.207238 28.349960 0.166093 0.973593 0.156620 
18.130980 2.224290 28.291660 0.293546 0.941917 0.163164 
18.150030 2.220858 28.201700 0.162372 0.934149 0.317808 
18.204050 2.247266 28.157841 0.287813 0.926195 0.243570 
18.220221 2.241358 28.064011 0.156159 0.945601 0.285400 
18.276190 2.269423 28.022699 0.332177 0.897932 0.288750 
18.300489 2.270456 27.939569 0.269678 0.888122 0.372173 
18.349661 2.292719 27.889280 0.360932 0.818107 0.447693 
18.392700 2.309738 27.830870 0.134305 0.927659 0.348440 
18.422649 2.315581 27.755140 0.413101 0.900526 0.135648 
18.448759 2.318141 27.674311 0.208527 0.971592 0.111917 
18.468290 2.315062 27.584709 0.394281 0.918990 -0.000701 
18.482611 2.307530 27.488171 0.206628 0.973592 0.097072 
18.515820 2.316138 27.416639 0.342953 0.938324 0.043947 
18.522470 2.302031 27.309839 0.175619 0.972214 0.154781 
18.572630 2.325123 27.260759 0.198249 0.964511 0.174401 
18.588980 2.319301 27.166759 0.239136 0.924688 0.296252 
18.645081 2.347468 27.125549 0.250655 0.902472 0.350309 
18.665810 2.345379 27.037319 0.163393 0.932484 0.322144 
18.720551 2.372379 26.994289 0.223605 0.938897 0.261672 
18.736610 2.366284 26.899780 0.140451 0.983551 0.113580 
18.775080 2.379360 26.835079 0.335810 0.941198 -0.037110 
18.759750 2.346393 26.698681 0.425514 0.901302 -0.081197 
18.786091 2.349074 26.617741 0.154524 0.973897 0.166275 
18.818411 2.356869 26.544750 0.280618 0.910276 0.304387 
18.868460 2.379844 26.495399 0.184391 0.942638 0.278270 
18.887791 2.376511 26.405029 0.338321 0.935029 0.106110 
18.922270 2.386150 26.334860 0.184604 0.975523 0.119480 
18.940639 2.381985 26.243139 0.287047 0.947168 0.143099 
18.978510 2.394514 26.177450 0.084653 0.933687 0.347941 
19.022449 2.412239 26.119869 0.299455 0.875629 0.378947 
19.063240 2.427270 26.058069 0.343326 0.909947 0.232645 
19.079149 2.420976 25.962931 0.591753 0.805792 -0.022984 
19.090071 2.410392 25.861059 0.292790 0.943980 0.152233 
19.125980 2.421224 25.792641 0.382446 0.904451 0.188955 
19.151550 2.423192 25.710340 0.183772 0.921268 0.342772 
19.201380 2.445953 25.660561 0.402756 0.885340 0.232295 
19.216820 2.439220 25.564600 0.157378 0.970829 0.180893 
19.262211 2.458169 25.508841 0.264785 0.952681 0.149291 
19.276331 2.450291 25.411030 0.107085 0.935032 0.338005 
19.343361 2.487807 25.384350 0.157917 0.919150 0.360869 
19.368429 2.489317 25.301220 0.149577 0.956776 0.249412 
19.410460 2.505372 25.240891 0.434316 0.898633 0.061874 
19.398279 2.474903 25.107540 0.379680 0.924097 0.043442 
19.439760 2.490475 25.046410 0.253073 0.961488 0.107209 
19.446871 2.476545 24.938940 0.328507 0.886036 0.327144 
19.507980 2.508972 24.904249 0.256547 0.884835 0.388909 
19.529030 2.506996 24.815510 0.380224 0.886376 0.264136 
19.578390 2.529330 24.764959 0.310988 0.914049 0.260385 
19.589291 2.518621 24.662439 0.321650 0.925613 0.199455 
19.640360 2.542419 24.614180 0.237300 0.921785 0.306596 
19.657471 2.537042 24.519991 0.384100 0.866690 0.318302 
19.711050 2.562989 24.475100 0.401635 0.869774 0.286676 
19.716089 2.547221 24.364510 0.444912 0.890748 0.092848 
19.756720 2.562039 24.302059 0.272547 0.953109 0.131537 
19.763321 2.547593 24.193480 0.541597 0.839188 0.049358 
19.791510 2.551705 24.114120 0.101196 0.904329 0.414667 
19.849350 2.581313 24.074949 0.153692 0.890516 0.428206 
19.898581 2.603519 24.024120 0.170414 0.957937 0.230903 
19.909420 2.592692 23.921141 0.308928 0.941825 0.132400 
19.954710 2.611504 23.864920 0.055931 0.960445 0.272796 
19.987049 2.619166 23.791090 0.227987 0.940015 0.253760 
20.031420 2.637177 23.733601 0.180978 0.959912 0.214046 
20.047779 2.631081 23.637991 0.515586 0.856373 -0.028221 
20.059521 2.620996 23.536030 0.258097 0.964354 0.058374 
20.084560 2.622356 23.452150 0.409992 0.911797 0.023070 
20.097540 2.613321 23.351789 0.242192 0.934056 0.262454 
20.149170 2.637571 23.304090 0.219080 0.913681 0.342332 
20.177031 2.641340 23.223961 0.151057 0.955270 0.254245 
20.224800 2.662264 23.170990 0.233396 0.963953 0.127754 
20.231741 2.648002 23.062241 0.240033 0.948143 0.208349 
20.289740 2.677724 23.023190 0.167400 0.940745 0.294916 
20.310770 2.675598 22.933640 0.167868 0.907776 0.384400 
20.374041 2.709866 22.901810 0.257944 0.909193 0.326855 
20.386709 2.700520 22.800751 0.247628 0.967387 0.053324 
20.418680 2.707803 22.726070 0.293246 0.956021 -0.005529 
20.418760 2.687585 22.607679 0.432670 0.899471 0.061231 
20.460810 2.703552 22.546740 0.144783 0.964503 0.220844 
20.479031 2.698963 22.453119 0.311974 0.924989 0.216952 
20.535400 2.727276 22.411800 -0.082210 0.888441 0.451568 
15.725870 1.697006 34.544521 0.104258 0.776691 0.621193 
15.780660 1.724197 34.502361 0.377655 0.845499 0.377502 
15.803650 1.724526 34.419979 0.333172 0.900341 0.279967 
15.845770 1.741007 34.361771 0.409457 0.895649 0.173661 
15.855520 1.730138 34.262581 0.210357 0.963120 0.167782 
15.900040 1.748648 34.207390 0.294529 0.942441 0.158299 
15.915680 1.742738 34.115570 0.112778 0.976215 0.185164 
15.964700 1.765043 34.066051 0.164201 0.965958 0.199910 
15.985610 1.763585 33.980869 0.229061 0.954856 0.189159 
16.020029 1.773549 33.912811 0.472286 0.876346 0.094675 
16.028330 1.761410 33.811539 0.459119 0.864674 0.203836 
16.068029 1.775826 33.750141 0.560300 0.789337 0.251020 
16.084410 1.770508 33.659061 0.497598 0.754951 0.427135 
16.138741 1.797300 33.616230 0.351700 0.789691 0.502688 
16.171141 1.805534 33.545502 0.210187 0.889496 0.405731 
16.220390 1.828017 33.496189 0.387253 0.892115 0.232735 
16.226200 1.813741 33.391548 0.310787 0.946183 0.090276 
16.261709 1.824591 33.324711 0.314717 0.947062 0.063455 
16.269670 1.812120 33.222721 0.147704 0.976348 0.157888 
16.320721 1.836117 33.175659 0.191241 0.973147 0.128113 
16.325220 1.820702 33.069172 0.300419 0.944692 0.131554 
16.368940 1.838493 33.012730 0.297395 0.943528 0.145987 
16.376040 1.825259 32.909470 0.404743 0.881701 0.242460 
16.421160 1.844228 32.854778 0.390653 0.853053 0.345965 
16.447651 1.847410 32.776249 0.292320 0.872434 0.391673 
16.497780 1.870621 32.727951 0.384527 0.880382 0.277609 
16.509300 1.861115 32.630211 0.404481 0.900445 0.159983 
16.548491 1.875049 32.567879 0.338989 0.925816 0.167183 
16.564070 1.868964 32.475262 0.339759 0.920166 0.194571 
16.609989 1.888601 32.421520 0.218024 0.949870 0.224082 
16.622931 1.880270 32.325459 0.216097 0.952311 0.215420 
16.672960 1.903382 32.276958 0.308860 0.935857 0.169638 
16.679670 1.889756 32.172821 0.427869 0.882982 0.193058 
16.721870 1.906223 32.114250 0.347180 0.895637 0.278028 
16.743641 1.905362 32.029400 0.249494 0.826331 0.504905 
16.815990 1.947408 32.009571 0.287974 0.804969 0.518744 
16.836590 1.945543 31.923180 0.424066 0.829173 0.364199 
16.886950 1.968924 31.875059 0.415441 0.874041 0.251916 
16.890720 1.952770 31.766930 0.256171 0.962723 0.086836 
16.931740 1.968218 31.706751 0.251668 0.963302 0.093339 
16.942459 1.957949 31.607491 0.190676 0.963277 0.189049 
16.988029 1.977259 31.553150 0.259249 0.942735 0.209859 
17.007990 1.974813 31.465731 0.265734 0.945661 0.187380 
17.054541 1.994956 31.412630 0.279163 0.947176 0.157877 
17.053030 1.974262 31.297409 0.478995 0.877660 0.016624 
17.083160 1.980447 31.223049 0.292834 0.945099 0.145040 
17.100910 1.976105 31.132641 0.374922 0.874675 0.307210 
17.155180 2.002791 31.089460 0.239431 0.900823 0.362202 
17.179449 2.003978 31.007429 0.315954 0.924742 0.212194 
17.223289 2.021797 30.950741 0.164547 0.972588 0.164310 
17.233110 2.010697 30.849939 0.269808 0.961560 0.051052 
17.267490 2.020465 30.780939 0.073434 0.988545 0.131854 
17.287001 2.017585 30.692619 0.398186 0.916316 0.042582 
17.309561 2.017290 30.608219 0.254916 0.953059 0.163388 
17.338110 2.022090 30.531580 0.490641 0.856700 0.159176 
17.362009 2.022931 30.448860 0.348413 0.855513 0.383022 
17.408270 2.042786 30.395189 0.330606 0.753365 0.568455 
17.463900 2.070615 30.353701 0.268050 0.840644 0.470603 
17.491261 2.074390 30.275431 0.295263 0.883878 0.362740 
17.548691 2.103755 30.236290 0.215180 0.935360 0.280711 
17.555349 2.089897 30.131010 0.328113 0.938607 0.106573 
17.600010 2.108382 30.075211 0.239061 0.961946 0.132326 
17.604549 2.092701 29.967070 0.449055 0.891652 -0.057503 
17.621469 2.087564 29.875040 0.171601 0.983747 0.052876 
17.646250 2.089104 29.793221 0.383651 0.920288 -0.076691 
17.636061 2.060855 29.665701 0.240820 0.961141 0.134961 
17.689680 2.086953 29.621481 0.239353 0.944266 0.225990 
17.705931 2.081209 29.528410 0.256337 0.873479 0.413916 
17.774900 2.120394 29.504290 0.240974 0.928569 0.282298 
17.777290 2.102826 29.393021 0.297133 0.946579 0.125296 
17.822041 2.121365 29.337179 0.246077 0.958072 0.146776 
17.833981 2.111928 29.238331 0.169883 0.972033 0.162145 
17.884100 2.135031 29.189489 0.079377 0.974431 0.210197 
17.902321 2.130939 29.098820 0.129994 0.950072 0.283663 
17.959810 2.160331 29.059629 0.088920 0.952500 0.291269 
17.986509 2.163458 28.980030 0.196494 0.965025 0.173542 
18.022200 2.174255 28.912220 0.372831 0.925644 0.064651 
18.024990 2.156974 28.801140 0.419765 0.884763 0.202463 
18.069901 2.175626 28.745399 0.418089 0.874147 0.247121 
18.081480 2.165831 28.645790 0.505765 0.835462 0.214953 
18.123020 2.181602 28.585581 0.334045 0.903038 0.270067 
18.142570 2.178589 28.496370 0.349839 0.918442 0.184601 
18.187960 2.197642 28.441200 0.202504 0.959005 0.198245 
18.196270 2.185027 28.337130 0.294345 0.946002 0.135801 
18.244150 2.206198 28.285200 0.032491 0.963812 0.264597 
18.272579 2.210762 28.207609 0.235725 0.947366 0.216637 
18.317591 2.229476 28.151880 0.197739 0.962379 0.186351 
18.326740 2.217554 28.048771 0.542924 0.827420 0.143560 
18.364241 2.229845 27.983070 0.348018 0.875547 0.335114 
18.393700 2.235267 27.906740 0.366222 0.748125 0.553345 
18.465340 2.276739 27.886190 0.360880 0.772088 0.523113 
18.478800 2.268472 27.788639 0.452582 0.842655 0.291722 
18.530340 2.292761 27.741480 0.330591 0.901688 0.278691 
18.539400 2.280726 27.638041 0.353776 0.933089 0.064714 
18.571430 2.288327 27.565001 0.194166 0.975786 0.100704 
18.588249 2.282904 27.471750 0.292978 0.952724 0.080505 
18.623590 2.293329 27.403049 0.157262 0.976876 0.144851 
18.644920 2.291761 27.315729 0.514336 0.857581 0.003559 
18.654020 2.279716 27.212111 0.294674 0.911216 0.287841 
18.706480 2.304770 27.166071 0.298903 0.858298 0.417111 
18.745110 2.317993 27.101660 0.128131 0.901294 0.413825 
18.792179 2.338439 27.048460 0.145031 0.886454 0.439505 
18.847349 2.365814 27.006029 0.179743 0.952819 0.244600 
18.847570 2.346148 26.890440 0.484411 0.864947 -0.131193 
18.854349 2.332072 26.783501 0.152659 0.988239 -0.008872 
18.880819 2.334867 26.702780 0.274062 0.961465 -0.021796 
18.885710 2.319159 26.593220 0.202099 0.957199 0.207188 
18.941280 2.346866 26.551260 0.109650 0.965054 0.238009 
18.961411 2.344209 26.461981 0.204143 0.969309 0.136986 
18.998329 2.355931 26.395081 0.288864 0.952907 0.092330 
19.009970 2.345979 26.294380 0.305211 0.934343 0.183980 
19.056740 2.366137 26.240610 0.223604 0.931293 0.287566 
19.079639 2.365830 26.154900 0.377353 0.857363 0.350048 
19.132620 2.391315 26.109440 0.355177 0.895974 0.266610 
19.132420 2.371186 25.992729 0.521147 0.848880 0.088363 
19.173441 2.386400 25.931200 0.237651 0.947370 0.214505 
19.191339 2.381781 25.838659 0.344189 0.923042 0.171836 
19.232109 2.396779 25.776770 0.193103 0.942678 0.272157 
19.260429 2.401088 25.698139 0.322194 0.906932 0.271413 
19.308290 2.422165 25.645729 0.168924 0.949355 0.264935 
19.328470 2.419483 25.556129 0.451281 0.881692 0.137711 
19.363131 2.429222 25.485960 0.168249 0.916472 0.363003 
19.405590 2.445649 25.426241 0.401281 0.823942 0.400116 
19.448330 2.462322 25.366911 0.245462 0.903173 0.352175 
19.476320 2.466328 25.287710 0.544818 0.835218 0.074727 
19.493460 2.461002 25.193850 0.150910 0.982829 0.106174 
19.523310 2.466595 25.117100 0.393317 0.918914 -0.029981 
19.520309 2.443959 24.996010 0.183024 0.966968 0.177410 
19.573370 2.469472 24.950470 0.264790 0.943497 0.199251 
19.585609 2.459912 24.849850 0.279968 0.921533 0.269065 
19.636801 2.483823 24.801790 0.322940 0.923695 0.206148 
19.648911 2.474142 24.700920 0.388389 0.872582 0.296235 
19.700680 2.498546 24.653620 0.368963 0.866170 0.337068 
19.719101 2.494270 24.561199 0.330416 0.893578 0.303880 
19.765120 2.513735 24.506109 0.443947 0.857880 0.258752 
19.785469 2.511110 24.416250 0.347475 0.911850 0.218612 
19.824089 2.524197 24.351101 0.393600 0.911853 0.116634 
19.826611 2.506221 24.237000 0.323493 0.927933 0.185185 
19.883711 2.535197 24.196850 0.208510 0.904717 0.371499 
19.907520 2.535530 24.111549 0.279022 0.859480 0.428300 
19.968620 2.567955 24.076839 0.293681 0.890674 0.347061 
19.981319 2.558711 23.976400 0.259461 0.934175 0.244944 
20.033609 2.583548 23.929720 0.377867 0.879144 0.290384 
20.049841 2.577331 23.834000 0.388118 0.850381 0.355270 
20.105721 2.605257 23.792179 0.385898 0.867395 0.314178 
20.107830 2.586876 23.677200 0.430620 0.897002 0.099773 
20.150120 2.603089 23.616850 0.228459 0.963563 0.139114 
20.158840 2.590379 23.510759 0.443248 0.894916 -0.051546 
20.171471 2.581030 23.409941 0.165674 0.963535 0.210127 
20.222530 2.604789 23.361481 0.145083 0.909478 0.389617 
20.271219 2.626506 23.309799 0.176190 0.923093 0.341843 
20.299191 2.630366 23.229830 0.482766 0.872145 0.079368 
20.313801 2.622696 23.131571 0.228554 0.950950 0.208463 
20.355721 2.638575 23.070601 0.330153 0.907709 0.258966 
20.384781 2.643352 22.992020 0.091810 0.930746 0.353952 
20.436230 2.667441 22.944059 0.241119 0.906787 0.345830 
20.475260 2.680815 22.879089 0.260051 0.951447 0.164687 
20.487749 2.671287 22.777760 0.519293 0.847311 -0.111353 
20.479191 2.643595 22.647539 0.264895 0.949408 0.168689 
20.538620 2.674554 22.610439 0.248497 0.947266 0.202326 
20.547461 2.661856 22.503969 0.303340 0.916255 0.261650 
20.598949 2.685965 22.455980 0.327468 0.892915 0.308980 
20.605921 2.671631 22.346849 0.571441 0.817817 -0.068041 
15.798690 1.664723 34.598389 0.194742 0.849825 0.489769 
15.838420 1.679188 34.537201 0.428600 0.834498 0.346287 
15.872650 1.689009 34.469051 0.249435 0.916572 0.312535 
15.905650 1.697785 34.399330 0.289370 0.924937 0.246487 
15.945070 1.711983 34.337711 0.160089 0.969346 0.186385 
15.963670 1.708574 34.249699 0.328248 0.928852 0.171718 
16.007240 1.726277 34.193310 0.095681 0.962249 0.254798 
16.032560 1.728545 34.113770 0.354615 0.921118 0.160592 
16.065769 1.737473 34.044201 0.276932 0.947428 0.160279 
16.083019 1.732899 33.954361 0.516256 0.856210 -0.019590 
16.090231 1.719831 33.851730 0.411220 0.905888 0.101317 
16.119310 1.725249 33.776821 0.542630 0.831690 0.117661 
16.135080 1.719406 33.684990 0.327761 0.847840 0.416821 
16.195869 1.751664 33.650379 0.292838 0.784589 0.546504 
16.237181 1.767437 33.591000 0.204525 0.851929 0.482065 
16.281349 1.785627 33.535252 0.371249 0.863895 0.340383 
16.317440 1.796969 33.469189 0.250877 0.944966 0.209999 
16.337330 1.794592 33.382469 0.354637 0.929393 0.102277 
16.367929 1.801278 33.309361 0.123131 0.974644 0.186835 
16.397650 1.807219 33.235130 0.421007 0.906328 0.036379 
16.406380 1.795362 33.134048 0.176411 0.979633 0.095904 
16.441389 1.805776 33.066509 0.411995 0.911083 0.013706 
16.442101 1.787110 32.955101 0.279924 0.947224 0.156233 
16.488239 1.806943 32.901730 0.220744 0.934849 0.278083 
16.519070 1.813796 32.828770 0.117199 0.939918 0.320654 
16.566500 1.834729 32.777039 0.250844 0.943847 0.215012 
16.586960 1.832784 32.690769 0.212164 0.967728 0.135975 
16.618240 1.840008 32.618309 0.390735 0.918597 0.059203 
16.627439 1.828500 32.517540 0.264027 0.932250 0.247386 
16.681419 1.854973 32.474152 0.170469 0.926259 0.336131 
16.714569 1.863774 32.404030 0.243125 0.951438 0.188827 
16.737900 1.864239 32.321289 0.408914 0.911438 0.045509 
16.749901 1.855083 32.223961 0.180191 0.971725 0.152586 
16.793501 1.872736 32.167198 0.235127 0.959557 0.154807 
16.811720 1.868846 32.077789 0.169615 0.912207 0.372973 
16.869141 1.898235 32.038792 0.341681 0.848324 0.404476 
16.896749 1.902307 31.961411 0.203768 0.903535 0.376966 
16.946581 1.925243 31.912630 0.268151 0.905207 0.329690 
16.984159 1.937782 31.848070 0.263897 0.945823 0.189149 
17.001270 1.932927 31.757099 0.440404 0.894557 0.076237 
17.027620 1.935919 31.678020 0.299305 0.930906 0.209357 
17.060570 1.944503 31.607410 0.414844 0.900755 0.128630 
17.070480 1.933514 31.507050 0.257372 0.942564 0.212917 
17.116871 1.953513 31.453739 0.323768 0.937635 0.126549 
17.123461 1.939693 31.349020 0.244633 0.966498 0.077696 
17.161209 1.952338 31.284510 0.302985 0.950801 0.064641 
17.167980 1.938650 31.179911 0.323678 0.913753 0.245536 
17.218800 1.962413 31.132299 0.284403 0.899266 0.332318 
17.240681 1.961558 31.047190 0.223527 0.915729 0.333880 
17.297140 1.990116 31.006861 0.329392 0.912779 0.241526 
17.304750 1.977110 30.903200 0.208887 0.956125 0.205406 
17.361530 2.005940 30.863291 0.256972 0.953049 0.160198 
17.354530 1.980488 30.740589 0.334214 0.941827 0.035551 
17.394279 1.994816 30.678530 0.260503 0.960810 0.094773 
17.400471 1.980577 30.572861 0.445227 0.889223 0.105147 
17.438900 1.993773 30.509041 0.299467 0.917621 0.261327 
17.462820 1.994608 30.426331 0.306947 0.820453 0.482327 
17.527630 2.030268 30.396811 0.184308 0.850473 0.492674 
17.554390 2.033521 30.317770 0.244497 0.860889 0.446197 
17.614861 2.065479 30.282610 0.406640 0.833060 0.375041 
17.626261 2.055634 30.183500 0.422639 0.880644 0.214110 
17.666920 2.070716 30.122511 0.504627 0.843894 0.182192 
17.673571 2.056823 30.017151 0.373291 0.920317 0.116923 
17.714001 2.071700 29.955811 0.258548 0.958541 0.119799 
17.719660 2.056939 29.849060 0.355335 0.934471 -0.022384 
17.746241 2.060004 29.769581 0.161623 0.985825 0.045016 
17.759550 2.051745 29.672720 0.331580 0.940404 0.075461 
17.793640 2.061205 29.603001 0.074620 0.938571 0.336921 
17.841061 2.082020 29.550699 0.303039 0.919948 0.248725 
17.862431 2.080621 29.464291 0.182812 0.971260 0.152428 
17.895920 2.089558 29.393730 0.321561 0.939540 0.117745 
17.916451 2.087431 29.306160 0.061141 0.971396 0.229460 
17.968340 2.112062 29.259689 0.251029 0.938696 0.236293 
17.994930 2.115092 29.180000 0.077908 0.958904 0.272824 
18.040550 2.134370 29.125290 0.302497 0.924794 0.230761 
18.064020 2.134728 29.041460 0.256267 0.956886 0.136736 
18.087879 2.135424 28.958130 0.471882 0.881010 -0.033886 
18.086861 2.114868 28.842051 0.291440 0.942069 0.166040 
18.136181 2.137281 28.792110 0.356292 0.924702 0.134099 
18.135740 2.117201 28.676689 0.306496 0.915465 0.260739 
18.199249 2.151742 28.645420 0.259682 0.932023 0.252781 
18.201469 2.133914 28.533409 0.273573 0.929748 0.246429 
18.260401 2.164541 28.496111 0.199478 0.949931 0.240499 
18.273720 2.156185 28.398649 0.084524 0.974527 0.207732 
18.330330 2.184823 28.358271 0.132381 0.974639 0.180428 
18.342010 2.175054 28.258579 0.187169 0.963230 0.192760 
18.391911 2.197954 28.209330 0.305510 0.946149 0.107074 
18.389299 2.175956 28.090691 0.326502 0.938748 0.110219 
18.432859 2.193434 28.033039 0.293831 0.938203 0.182862 
18.448050 2.186645 27.937840 0.409285 0.777458 0.477541 
18.509850 2.219710 27.904270 0.368923 0.759812 0.535333 
18.536091 2.222363 27.823650 0.371645 0.828601 0.418688 
18.588301 2.247227 27.777399 0.324742 0.860204 0.393181 
18.615250 2.250477 27.697670 0.283534 0.929238 0.236907 
18.655100 2.264762 27.635010 0.335291 0.931414 0.141587 
18.662600 2.251361 27.529430 0.303216 0.947318 0.103191 
18.699850 2.263410 27.463280 0.381892 0.920887 0.078272 
18.700809 2.244390 27.348921 0.505256 0.862678 0.022437 
18.731371 2.250703 27.273821 0.259948 0.940806 0.217512 
18.759899 2.255270 27.195999 0.392091 0.826716 0.403492 
18.814810 2.282434 27.153250 0.215123 0.846635 0.486755 
18.846279 2.289516 27.079309 0.230329 0.802130 0.550941 
18.916901 2.330140 27.057480 0.254836 0.887464 0.384014 
18.918871 2.311939 26.944210 0.356520 0.933613 0.035503 
18.955650 2.323562 26.877279 0.263944 0.963224 0.050322 
18.956390 2.304292 26.762270 0.333648 0.941927 -0.038105 
18.982100 2.306416 26.680519 0.006980 0.984105 0.177450 
19.026039 2.324166 26.623070 0.154680 0.973094 0.170768 
19.051580 2.326136 26.541040 0.177346 0.980096 0.089221 
19.073940 2.325372 26.454729 0.433060 0.901109 -0.021508 
19.080441 2.311000 26.347170 0.229680 0.958845 0.166923 
19.127150 2.331105 26.293341 0.345082 0.922784 0.171430 
19.139059 2.321362 26.192940 0.257901 0.908199 0.329639 
19.198721 2.352571 26.156420 0.387655 0.895395 0.219071 
19.194870 2.329289 26.034840 0.277606 0.947623 0.157945 
19.246719 2.353801 25.987841 0.186764 0.964412 0.187160 
19.261209 2.346241 25.890751 0.222682 0.958535 0.177828 
19.306700 2.365283 25.835190 0.197779 0.960356 0.196468 
19.325310 2.361250 25.743549 0.191161 0.941667 0.276986 
19.380131 2.388311 25.700520 0.299525 0.932475 0.201929 
19.384510 2.372042 25.589701 0.518637 0.833044 0.192495 
19.429710 2.390831 25.533701 0.356547 0.867271 0.347441 
19.451321 2.389347 25.445959 0.457493 0.754560 0.470466 
19.515039 2.424045 25.414869 0.334519 0.825678 0.454261 
19.525490 2.412965 25.312059 0.412167 0.870315 0.269575 
19.584480 2.443599 25.274599 0.250913 0.928432 0.273964 
19.587830 2.426404 25.162140 0.387700 0.920689 0.044956 
19.626181 2.439290 25.096830 0.061171 0.986632 0.151047 
19.647280 2.437337 25.008221 0.255102 0.961014 0.106654 
19.684071 2.448871 24.940760 0.074508 0.982162 0.172647 
19.710670 2.451644 24.859529 0.437522 0.899153 -0.009909 
19.713140 2.433648 24.745640 0.335765 0.916138 0.218982 
19.763170 2.456563 24.695999 0.388899 0.851366 0.352042 
19.794609 2.463474 24.621210 0.324876 0.903091 0.280860 
19.825859 2.470226 24.546141 0.414557 0.886813 0.204221 
19.853121 2.473543 24.465660 0.227142 0.936687 0.266505 
19.896481 2.490706 24.406950 0.395868 0.913006 0.098527 
19.894991 2.469255 24.287420 0.307739 0.934260 0.180153 
19.941530 2.489147 24.232969 0.226924 0.920892 0.316961 
19.974461 2.497321 24.160049 0.117976 0.910790 0.395656 
20.028740 2.523877 24.116100 0.311744 0.898097 0.310220 
20.052019 2.523733 24.030041 0.323045 0.923185 0.208259 
20.082640 2.529905 23.953930 0.546816 0.820675 0.165786 
20.104931 2.528898 23.866461 0.327813 0.845109 0.422291 
20.161169 2.557140 23.825150 0.456894 0.821388 0.341422 
20.176979 2.550538 23.728800 0.225665 0.945735 0.233796 
20.224409 2.571181 23.675480 0.297520 0.944774 0.137416 
20.230490 2.556175 23.565800 0.380268 0.924081 0.038351 
20.263691 2.564549 23.493050 0.202755 0.971703 0.121176 
20.278280 2.556864 23.394880 0.310486 0.896687 0.315517 
20.334860 2.585395 23.353979 0.250120 0.909437 0.332211 
20.353090 2.580834 23.260710 0.493048 0.854231 0.164904 
20.391230 2.593450 23.194611 0.248639 0.932743 0.261092 
20.418579 2.596758 23.113750 0.311970 0.881388 0.354725 
20.476950 2.626817 23.075260 0.268161 0.868784 0.416299 
20.496429 2.623319 22.983580 0.396479 0.857719 0.327296 
20.547199 2.646830 22.934710 0.252743 0.928290 0.272760 
20.559420 2.637048 22.833019 0.428707 0.902944 -0.030053 
20.577539 2.632361 22.739370 0.109304 0.991472 0.070969 
20.602011 2.633145 22.654381 0.414842 0.909416 0.029474 
20.619141 2.627592 22.559299 0.220722 0.952749 0.208691 
20.662621 2.644782 22.500330 0.464413 0.875369 0.134352 
20.670071 2.630852 22.391880 0.600846 0.797200 -0.058790 
15.893040 1.631547 34.568081 0.094590 0.833985 0.543619 
15.950260 1.660805 34.529030 0.172216 0.902654 0.394408 
15.977100 1.664371 34.451530 0.205600 0.929174 0.307186 
16.026421 1.686948 34.402481 0.255581 0.946596 0.196556 
16.031639 1.672204 34.297539 0.274089 0.932279 0.236073 
16.089649 1.702124 34.259472 0.311121 0.904409 0.291973 
16.096930 1.689117 34.157070 0.452157 0.871514 0.189781 
16.140680 1.706966 34.100891 0.312644 0.924246 0.219144 
16.149839 1.695528 34.000790 0.440847 0.897556 0.006916 
16.172871 1.695834 33.918270 0.296304 0.954235 0.040486 
16.183830 1.685908 33.820370 0.404181 0.913341 0.049464 
16.212811 1.691237 33.745331 0.174371 0.956023 0.235827 
16.244040 1.698466 33.673141 0.258086 0.855749 0.448425 
16.306780 1.732391 33.641041 0.189115 0.870944 0.453533 
16.333441 1.735741 33.563000 0.445865 0.800753 0.399997 
16.385540 1.760654 33.517361 0.368109 0.855896 0.363232 
16.400640 1.754199 33.424541 0.445306 0.858426 0.254574 
16.448099 1.775171 33.372971 0.362271 0.888739 0.280897 
16.456940 1.763402 33.272091 0.341273 0.922014 0.182822 
16.509951 1.789076 33.227581 0.215380 0.962707 0.163725 
16.504410 1.765096 33.108250 0.409966 0.911511 -0.032790 
16.534969 1.771730 33.035019 0.146106 0.980883 0.128540 
16.558680 1.772543 32.952999 0.209410 0.948281 0.238559 
16.608410 1.795426 32.904240 0.039370 0.952004 0.303544 
16.637369 1.800682 32.828880 0.267365 0.942864 0.198805 
16.675949 1.814109 32.765850 0.255206 0.955454 0.148248 
16.687880 1.804908 32.668621 0.451718 0.892061 0.013322 
16.709681 1.804074 32.584011 0.195604 0.959569 0.202403 
16.746130 1.815678 32.518169 0.339414 0.893983 0.292561 
16.782820 1.827475 32.452610 0.200020 0.940773 0.273749 
16.815651 1.836001 32.382092 0.177212 0.961932 0.208046 
16.856701 1.851491 32.322090 0.142445 0.979210 0.144420 
16.869499 1.842999 32.225780 0.350943 0.935653 0.037327 
16.896030 1.846152 32.147079 0.134044 0.971406 0.195968 
16.928570 1.854410 32.076080 0.167867 0.923118 0.345938 
16.988420 1.885870 32.040241 0.165721 0.928521 0.332244 
17.006140 1.881532 31.950130 0.434828 0.862134 0.260096 
17.049879 1.899303 31.893530 0.421230 0.871858 0.249858 
17.062799 1.890867 31.797159 0.559418 0.823342 0.095704 
17.088640 1.893411 31.717421 0.333313 0.906041 0.260754 
17.125019 1.904917 31.651270 0.264009 0.917329 0.298006 
17.170370 1.924044 31.596670 0.139960 0.957048 0.253909 
17.192101 1.923079 31.511551 0.320053 0.942578 0.095455 
17.221291 1.928455 31.436050 0.209222 0.975319 0.070560 
17.233419 1.919312 31.338440 0.437144 0.896201 -0.075693 
17.237471 1.903291 31.230339 0.198814 0.964405 0.174345 
17.287680 1.926533 31.181950 0.174864 0.944195 0.279138 
17.320230 1.934752 31.110680 0.198595 0.942518 0.268737 
17.354469 1.944402 31.041580 0.454235 0.866161 0.208411 
17.383459 1.949584 30.965660 0.239574 0.915534 0.323112 
17.425350 1.965739 30.906441 0.477028 0.856505 0.197088 
17.440081 1.958768 30.811960 0.255300 0.961022 0.106106 
17.468731 1.963645 30.735519 0.367032 0.930165 -0.008935 
17.464870 1.940825 30.616800 0.301712 0.950461 0.074791 
17.505100 1.955552 30.555340 0.217925 0.962544 0.161299 
17.524321 1.952376 30.466530 0.135757 0.905000 0.403169 
17.594379 1.992515 30.443859 0.194682 0.890668 0.410865 
17.616659 1.991936 30.358990 0.271958 0.893595 0.357109 
17.663830 2.012575 30.306530 0.469781 0.835251 0.285767 
17.684629 2.010729 30.219681 0.571145 0.785422 0.238549 
17.718750 2.020233 30.150169 0.552794 0.795642 0.247734 
17.741590 2.020115 30.065920 0.277705 0.921710 0.270795 
17.784790 2.037354 30.008221 0.315330 0.933866 0.168705 
17.796370 2.027620 29.909201 0.235795 0.969353 0.068961 
17.829000 2.035838 29.837660 0.246951 0.968693 0.025496 
17.833900 2.020394 29.729830 0.272634 0.960716 0.051921 
17.868401 2.030196 29.660669 0.109778 0.962292 0.248885 
17.906691 2.043233 29.596451 0.188572 0.947635 0.257737 
17.946541 2.057597 29.534260 0.212563 0.963166 0.164704 
17.963961 2.052809 29.442659 0.256658 0.948725 0.184519 
18.012251 2.074370 29.391500 0.240153 0.949243 0.203138 
18.021469 2.062565 29.289080 0.425550 0.868918 0.252762 
18.075991 2.089450 29.246071 0.255775 0.893251 0.369705 
18.096451 2.087238 29.158340 0.391796 0.864950 0.313619 
18.150490 2.113695 29.114679 0.311178 0.904270 0.292343 
18.159349 2.101563 29.011650 0.448799 0.893604 0.007252 
18.182510 2.101650 28.927389 0.200493 0.974792 0.097894 
18.204611 2.100814 28.841681 0.409890 0.911855 0.022618 
18.220961 2.095056 28.748369 0.120015 0.974520 0.189490 
18.262939 2.111200 28.688770 0.281274 0.937867 0.203200 
18.292030 2.116330 28.612190 0.118675 0.963424 0.240273 
18.331450 2.130278 28.549179 0.288387 0.907869 0.304315 
18.374809 2.147595 28.491360 0.147290 0.931162 0.333532 
18.406811 2.155202 28.418550 0.361011 0.910949 0.199610 
18.438320 2.162378 28.345070 0.136926 0.975078 0.174568 
18.461571 2.162488 28.260651 0.377476 0.925384 0.034285 
18.481220 2.159511 28.171440 0.151089 0.985403 0.078436 
18.506840 2.161644 28.090099 0.430195 0.901950 -0.037660 
18.503679 2.139127 27.970631 0.248075 0.910804 0.329992 
18.573099 2.178730 27.947180 0.190970 0.907624 0.373831 
18.595350 2.177953 27.861271 0.236913 0.896843 0.373558 
18.651590 2.206278 27.820379 0.392365 0.836881 0.381681 
18.678881 2.209807 27.741110 0.531036 0.774101 0.344629 
18.719400 2.224664 27.679359 0.461114 0.832646 0.306715 
18.741249 2.223531 27.592831 0.305751 0.941803 0.139724 
18.766680 2.225454 27.511009 0.398346 0.917203 0.007663 
18.771320 2.209567 27.401550 0.290181 0.955347 0.055734 
18.806629 2.219942 27.332781 0.256145 0.963064 0.083051 
18.814720 2.206990 27.227800 0.278753 0.899272 0.337057 
18.879049 2.242232 27.197599 0.165441 0.886412 0.432323 
18.908710 2.247761 27.121269 0.106706 0.845128 0.523806 
18.980511 2.289409 27.101030 0.343998 0.845587 0.408227 
18.992189 2.279506 27.000700 0.281221 0.951375 0.125700 
19.025921 2.288513 26.929729 0.345824 0.934990 0.078738 
19.040590 2.281172 26.833321 0.322574 0.939703 0.113600 
19.078409 2.293672 26.767740 0.269992 0.941196 0.203113 
19.099331 2.291676 26.679600 0.345479 0.918368 0.192988 
19.138929 2.305700 26.616369 0.274453 0.954473 0.116859 
19.139650 2.286355 26.501150 0.335378 0.942077 0.003390 
19.173889 2.295768 26.430691 0.130232 0.986636 0.097922 
19.190269 2.289843 26.336321 0.362852 0.928633 0.077323 
19.223049 2.297997 26.263870 0.108559 0.968108 0.225792 
19.255659 2.306002 26.191160 0.309508 0.932618 0.185549 
19.293409 2.318412 26.125320 0.057606 0.976113 0.209490 
19.325500 2.325961 26.051870 0.292030 0.949643 0.113562 
19.348820 2.325969 25.966631 0.132260 0.976040 0.172780 
19.387079 2.338817 25.901430 0.195689 0.966782 0.164432 
19.413401 2.341393 25.820160 0.148596 0.973443 0.174150 
19.446650 2.349917 25.748171 0.447179 0.894282 0.017032 
19.441650 2.325572 25.624760 0.313232 0.932545 0.179573 
19.493799 2.350326 25.578110 0.325211 0.924282 0.199850 
19.503679 2.338754 25.474609 0.313742 0.839551 0.443531 
19.572929 2.378213 25.450970 0.326736 0.832747 0.446963 
19.590670 2.373385 25.357981 0.223382 0.908033 0.354367 
19.646391 2.401216 25.316139 0.351864 0.895231 0.273412 
19.660709 2.393432 25.218479 0.138959 0.966176 0.217244 
19.716261 2.421108 25.176380 0.218741 0.962752 0.158937 
19.722521 2.406385 25.067780 0.173694 0.975722 0.133403 
