68.738579 29.310579 85.812088 0.382512 0.647842 0.658776 
68.800011 29.351681 85.809097 0.522638 0.647807 0.554253 
68.791618 29.323799 85.708656 0.504544 0.853885 0.127730 
68.824097 29.336300 85.665253 0.476212 0.844639 0.244557 
67.236687 27.747650 83.357407 0.737555 0.669516 0.088099 
67.244461 27.735460 83.278236 0.839340 0.525831 -0.137877 
67.241386 27.712540 83.183853 0.817293 0.543241 -0.192150 
67.237251 27.688540 83.087891 0.381283 0.892620 0.240527 
67.293907 27.724670 83.077057 0.210543 0.636740 0.741778 
67.332909 27.743330 83.041481 0.390779 0.807793 0.441319 
67.341599 27.732000 82.963417 0.498288 0.848475 0.178324 
67.366852 27.737061 82.908546 0.339560 0.802037 0.491361 
67.408913 27.758739 82.877258 0.467331 0.847067 0.253137 
67.414352 27.744181 82.794548 0.243578 0.870411 0.427848 
67.457138 27.766590 82.764259 0.384590 0.594798 0.705908 
67.505913 27.794910 82.742393 0.692288 0.558464 0.457007 
67.496971 27.766090 82.639374 0.852878 0.515391 0.083496 
67.527153 27.775999 82.591331 0.493131 0.758116 0.426712 
69.097031 29.271851 84.532768 0.710107 0.146286 0.688730 
69.129646 29.284410 84.489243 0.736828 0.100912 0.668507 
67.588058 27.736309 82.224007 0.980483 0.173206 0.093025 
67.601067 27.729179 82.151611 0.828234 0.389640 0.402752 
67.624969 27.732821 82.094551 0.799586 0.460890 0.385022 
67.645508 27.733130 82.032707 0.792097 0.589669 0.157708 
67.666351 27.733740 81.971291 0.396458 0.887293 0.235652 
67.698730 27.745781 81.926170 0.272759 0.960364 0.057483 
67.689003 27.716049 81.821426 0.746459 0.633398 -0.203975 
67.690247 27.697180 81.732147 0.749388 0.654791 -0.098318 
67.692657 27.679461 81.644478 0.812691 0.389724 0.433185 
67.713417 27.756269 81.616577 0.391302 0.218927 0.893842 
67.732880 27.699270 81.610367 0.599717 0.139219 0.788009 
69.421631 29.316420 83.735283 0.896664 0.438387 -0.061729 
69.423363 29.298250 83.647667 0.643192 0.763772 0.054377 
69.445839 29.300699 83.589531 0.299724 0.914403 0.272089 
69.476433 29.311180 83.542877 0.645259 0.760681 0.070747 
69.461906 29.276840 83.432037 0.673956 0.729931 -0.113946 
69.462837 29.257830 83.343102 0.673952 0.727042 0.131145 
69.488060 29.262970 83.288727 0.441941 0.796487 0.412670 
69.534416 29.289120 83.264473 0.106599 0.909994 0.400685 
69.552841 29.287491 83.200378 0.437773 0.899085 0.000463 
68.042877 27.765270 80.955009 0.622290 0.779910 0.067048 
68.058350 27.760429 80.885490 0.373909 0.920357 0.114605 
69.672096 29.306259 82.918343 0.825112 0.549841 0.129865 
69.678413 29.292540 82.836777 0.621441 0.747544 0.234498 
69.712677 29.306650 82.795189 0.389909 0.897219 0.207291 
69.732491 29.306360 82.732887 0.292574 0.956106 0.016201 
69.735458 29.289280 82.646431 0.730430 0.681911 -0.038328 
69.755386 29.289089 82.584244 0.415229 0.846346 0.333592 
69.789787 29.303320 82.542793 0.363876 0.878397 0.309861 
69.801407 29.294830 82.468613 0.542076 0.820061 0.183452 
69.797256 29.346300 82.405769 0.652656 0.606713 0.453805 
69.824112 29.297390 82.410332 0.600985 0.747972 0.281702 
68.276649 27.734350 80.095573 0.783253 0.616765 -0.078201 
68.274513 27.711861 80.000343 0.971035 0.237160 0.029086 
68.289268 27.706200 79.929329 0.949117 0.284635 -0.134759 
68.262749 27.659370 79.798882 0.728451 0.684765 -0.021361 
68.286293 27.662460 79.740440 0.534225 0.727701 0.430180 
68.318222 27.673910 79.694054 0.921119 0.244986 0.302526 
68.340286 27.675520 79.633438 0.670345 0.441748 0.596235 
68.373047 27.687799 79.588219 0.602657 0.666751 0.438460 
68.391029 27.685329 79.521683 0.547139 0.668107 0.504253 
68.437721 27.711510 79.496559 0.540199 0.726921 0.423994 
68.426208 27.679560 79.387360 0.702930 0.637336 0.315740 
68.462517 27.695379 79.347229 0.541245 0.533893 0.649624 
68.497818 27.710171 79.305618 0.885258 0.326613 0.331124 
68.509483 27.701349 79.229797 0.698009 0.539943 0.470366 
68.546806 27.718170 79.191109 0.400683 0.633460 0.661953 
70.178726 29.288540 81.279182 0.116235 0.812859 0.570745 
70.209801 29.299360 81.232590 0.758744 0.611179 0.225316 
70.208717 29.278021 81.139313 0.524923 0.746686 0.408554 
70.262627 29.311680 81.125839 0.016729 0.859163 0.511428 
70.296150 29.304661 80.990952 0.265659 0.963307 0.038268 
70.314774 29.343571 81.109833 0.875758 0.383363 0.293395 
70.337936 29.326191 80.959862 0.224197 0.973948 0.034077 
70.338539 29.306490 80.868851 0.452785 0.858109 -0.242146 
70.315063 29.262659 80.742699 0.358312 0.916993 0.175320 
70.371933 29.299280 80.733528 0.307589 0.862546 0.401751 
70.399521 29.306589 80.681717 0.433562 0.723093 0.537736 
70.448273 29.294371 80.476486 0.880907 0.472433 0.028453 
70.446129 29.271851 80.381149 0.864763 0.469226 0.178916 
70.476448 29.281860 80.333191 0.562108 0.642693 0.520558 
70.505547 29.290640 80.283440 0.766394 0.421283 0.484933 
70.542259 29.307051 80.244827 0.702210 0.612243 0.363400 
70.537613 29.281969 80.145630 0.826840 0.552543 0.105033 
70.558708 29.282721 80.084106 0.775426 0.416303 0.474770 
70.598991 29.302700 80.050682 0.645500 0.645424 0.408360 
70.595284 29.278549 79.952744 0.427462 0.895125 0.126601 
69.114861 27.751369 77.594147 -0.319091 0.794507 0.516662 
70.760750 29.321850 79.639923 0.978031 -0.079787 0.192586 
70.747017 29.328550 79.712440 0.978562 -0.074105 0.192161 
70.754517 29.391939 79.665977 0.982679 0.018863 0.184351 
69.247147 27.780479 77.319077 0.991466 0.077114 0.105115 
69.245377 27.757910 77.222427 0.832390 0.212773 0.511718 
69.286720 27.778669 77.189262 0.790147 0.469177 0.394386 
69.301270 27.772499 77.116577 0.750684 0.631677 0.193540 
69.265663 27.715879 76.969879 0.750470 0.561642 0.348359 
69.311661 27.741310 76.943527 0.562846 0.589762 0.579125 
69.328812 27.737730 76.874573 0.870409 0.454532 0.189181 
69.337402 27.725519 76.792953 0.684932 0.691381 0.229916 
69.358421 27.725809 76.729630 0.832871 0.532141 0.152155 
69.399940 27.684059 76.413094 -0.253824 0.560567 0.788250 
69.464951 27.728621 76.414833 0.079045 0.761172 0.643715 
69.493011 27.735960 76.361801 0.494762 0.720360 0.486099 
69.532761 27.755079 76.326118 0.195028 0.506081 0.840147 
69.580719 27.782480 76.302620 0.752832 0.375323 0.540718 
69.590897 27.771799 76.223007 0.979950 0.176086 0.093230 
69.580063 27.739929 76.112129 0.993495 -0.094768 -0.063139 
69.546127 27.684750 75.966820 0.848955 0.383985 0.363084 
69.584412 27.702370 75.928864 0.804337 0.160415 0.572109 
71.114754 29.183229 77.924408 0.989306 0.049987 0.137019 
71.121162 29.168930 77.840027 0.929421 0.351835 0.111302 
71.484932 29.265711 77.159882 0.906722 0.365596 -0.210224 
71.464088 29.223749 77.034103 0.687363 0.711215 0.147332 
71.497971 29.237120 76.990494 0.227291 0.885872 0.404439 
71.529648 29.248270 76.943573 0.422771 0.885897 0.190923 
71.546471 29.244381 76.874268 0.143601 0.893442 0.425606 
71.593536 29.271099 76.850479 0.344117 0.814357 0.467339 
71.617813 29.274719 76.792343 0.455969 0.847532 0.271628 
65.564560 27.955690 89.761017 0.649453 0.717983 -0.250421 
65.556801 27.929140 89.664642 0.447054 0.894068 -0.028028 
65.583389 27.936020 89.613823 0.106945 0.968017 0.226951 
65.525673 27.860800 89.450958 0.245640 0.969097 -0.022609 
65.560677 27.875860 89.411247 0.346134 0.926600 -0.146985 
65.530937 27.827850 89.285400 0.568833 0.814312 -0.115432 
65.560463 27.837530 89.238327 0.441833 0.893726 0.077704 
65.626297 27.806280 88.893768 0.370488 0.914968 -0.159911 
65.634888 27.795540 88.818626 0.234687 0.967658 0.092525 
65.661690 27.802561 88.767807 0.451851 0.866131 0.213651 
65.688408 27.809490 88.716843 0.355509 0.919791 0.166128 
65.699783 27.801439 88.645340 0.523286 0.851192 0.040552 
65.715317 27.797461 88.579407 0.482306 0.872188 0.081663 
65.727814 27.790489 88.509331 0.629712 0.769502 0.106436 
65.742332 27.785500 88.441963 0.893733 0.431169 0.123831 
65.770813 27.794130 88.393257 0.457544 0.584282 0.670275 
65.798920 27.802380 88.344040 0.856240 0.292724 0.425635 
67.446541 29.354309 90.295921 0.771175 0.624982 -0.121188 
67.444420 29.333269 90.207153 0.710205 0.703987 -0.003369 
67.457962 29.327530 90.139381 0.443761 0.864655 0.235472 
67.489197 29.339069 90.095390 0.491350 0.865335 0.098845 
67.496803 29.327511 90.019577 0.677113 0.723159 0.136232 
67.517838 29.329069 89.961830 0.802297 0.592104 0.075713 
67.514153 29.306440 89.870743 0.666678 0.697166 0.263630 
66.022881 27.809710 87.687012 0.884547 0.462586 -0.059925 
66.015549 27.783251 87.589783 0.869092 0.494097 -0.023423 
66.031281 27.740721 87.348686 0.782230 0.479909 0.397245 
66.046898 27.736679 87.282257 0.907157 0.359628 0.218482 
66.046188 27.716650 87.193733 0.715118 0.427253 0.553227 
66.098679 27.748699 87.177147 0.663072 0.507004 0.550710 
66.105164 27.735689 87.098267 0.855772 0.486331 0.176456 
66.126213 27.736950 87.039101 0.694261 0.613382 0.376516 
66.150757 27.741631 86.984657 0.728518 0.521098 0.444656 
66.179161 27.750080 86.935417 0.924740 0.270113 0.268132 
66.194283 27.745510 86.868134 0.660266 0.415269 0.625780 
66.240570 27.771481 86.843147 0.726450 0.493422 0.478336 
66.238419 27.749969 86.752373 0.819744 0.518383 0.243513 
66.272903 27.764360 86.711327 0.752700 0.582803 0.306241 
66.269257 27.741369 86.618431 0.843855 0.531365 0.074559 
66.288597 27.740910 86.556763 0.918041 0.288582 0.271886 
66.300797 27.733440 86.485329 0.769122 0.617544 0.164592 
66.322731 27.735500 86.427116 0.710515 0.546485 0.443308 
66.355888 27.748581 86.384201 0.914508 0.122274 0.385647 
66.366043 27.739071 86.309891 0.685769 0.128650 0.716359 
66.429176 27.781580 86.307861 0.759558 0.314147 0.569546 
66.408020 27.741320 86.190773 0.861229 0.461086 -0.213739 
66.390488 27.704611 86.078560 0.794903 0.543183 -0.270335 
66.378510 27.673340 85.973846 0.759456 0.648745 -0.048543 
66.384460 27.659660 85.893593 0.627892 0.756429 0.183212 
66.422462 27.677460 85.857140 0.032829 0.905466 0.423147 
68.141693 29.289339 87.860039 -0.045264 0.886624 0.460272 
68.182297 29.309959 87.828308 -0.152223 0.940554 0.303621 
68.210251 29.318130 87.779213 -0.059665 0.939341 0.337756 
68.244987 29.332970 87.739418 0.800735 0.590890 0.098349 
68.206970 29.276239 87.599670 0.682375 0.665099 0.303326 
68.250847 29.300060 87.572403 0.571783 0.808116 0.141467 
68.236671 29.266750 87.465279 0.606873 0.790778 0.079851 
68.272598 29.282749 87.427040 0.535156 0.816248 0.217595 
68.270737 29.261551 87.336777 0.767467 0.622005 -0.155255 
68.275299 29.246651 87.255287 0.442633 0.894536 -0.062301 
68.278458 29.230360 87.171837 0.741386 0.667857 -0.065685 
68.335823 29.228609 86.987289 0.520628 0.853669 0.013957 
68.342407 29.215670 86.908409 0.510436 0.691560 0.511077 
68.394470 29.247530 86.892326 0.076342 0.547669 0.833205 
68.443024 29.275921 86.871407 0.513812 0.656153 0.552685 
68.453049 29.266359 86.797234 0.882740 0.460047 0.095533 
68.460129 29.253880 86.718933 0.856921 0.391192 0.335642 
68.493652 29.267460 86.677200 0.762266 0.429358 0.484358 
68.517921 29.271919 86.622650 0.452709 0.693339 0.560656 
68.563301 29.297190 86.597343 0.310144 0.733243 0.605116 
68.550819 29.340059 86.524063 0.130844 0.865281 0.483910 
68.594322 29.308310 86.552139 0.458123 0.737731 0.495860 
67.052277 27.767160 84.323799 0.786918 0.589691 -0.181726 
67.057182 27.752230 84.241150 0.454211 0.888520 -0.064997 
68.624901 29.240879 86.152802 0.554663 0.609558 0.566382 
68.655273 29.251320 86.106552 0.632033 0.555402 0.540428 
68.689636 29.265690 86.065849 0.758229 0.509696 0.406569 
68.698257 29.254641 85.989304 0.810109 0.563786 0.160835 
68.721039 29.257570 85.932419 0.403522 0.809840 0.425827 
68.756866 29.273390 85.893723 0.457890 0.802532 0.382465 
68.774277 29.271009 85.829353 0.472027 0.687259 0.552146 
68.813164 29.289841 85.794891 0.845630 0.301669 0.440348 
68.844254 29.300970 85.749573 0.779793 0.520181 0.348331 
68.841652 29.278780 85.657158 0.985863 0.161249 -0.045527 
67.276604 27.711220 83.380127 0.704464 0.707693 -0.053867 
67.282280 27.696939 83.298027 0.820233 0.547171 -0.166802 
67.263252 27.658199 83.181282 0.947557 0.299769 -0.110787 
67.282944 27.657761 83.118690 0.694259 0.542584 0.472871 
67.303177 27.657860 83.056839 0.625939 0.202044 0.753245 
67.368301 27.702379 83.057877 0.593103 0.395845 0.701095 
67.374260 27.688330 82.975983 0.505038 0.741383 0.441915 
67.422684 27.716320 82.953621 0.160866 0.853349 0.495900 
67.440399 27.713909 82.888184 0.402019 0.854775 0.328239 
67.487457 27.740561 82.863922 0.399184 0.846968 0.351138 
67.490540 27.723631 82.777863 0.731101 0.639417 0.237986 
67.511917 27.724819 82.717484 0.892244 0.445977 0.070754 
67.520447 27.713280 82.639008 0.897222 0.382674 0.220349 
67.546928 27.719521 82.585747 0.886709 0.229067 0.401592 
69.101677 29.201281 84.506233 0.549543 0.166813 0.818643 
69.144493 29.223949 84.477074 0.634682 0.097767 0.766564 
67.585777 27.657869 82.187233 0.499447 0.257913 0.827063 
67.634300 27.685930 82.164932 0.425793 0.543119 0.723686 
67.664162 27.695490 82.116302 0.641281 0.647585 0.411573 
67.691254 27.702290 82.063744 0.547489 0.761661 0.346596 
67.713699 27.704479 82.004593 0.413328 0.784133 0.462921 
67.756813 27.727190 81.974663 0.315129 0.756297 0.573331 
67.718330 27.668871 81.829208 0.553093 0.809983 -0.194977 
67.714073 27.644520 81.732132 0.730668 0.660899 -0.171280 
67.713989 27.624300 81.640907 0.788682 0.591419 0.167942 
69.436150 29.255489 83.722473 0.914336 0.402759 0.042130 
69.431679 29.270950 83.806152 0.735940 0.671717 -0.084790 
69.458908 29.258200 83.664726 0.784996 0.517956 0.339856 
69.483231 29.262461 83.609192 0.667700 0.691287 0.276222 
69.487091 29.246370 83.524529 0.794960 0.605012 -0.044707 
69.502052 29.241310 83.455612 0.548024 0.831286 0.092921 
69.525513 29.244699 83.398781 0.598441 0.799462 0.052237 
69.528091 29.227301 83.312157 0.476132 0.719833 0.505112 
69.581528 29.260509 83.297997 0.591674 0.582255 0.557585 
69.582268 29.241270 83.208687 0.779552 0.623372 0.060875 
68.076729 27.722481 80.969208 0.376715 0.804948 0.458415 
68.113579 27.738911 80.930206 0.368372 0.800971 0.471961 
69.704170 29.262640 82.930420 0.672785 0.560941 0.482395 
69.739883 29.278191 82.890930 0.646050 0.610987 0.457508 
69.755127 29.273350 82.822128 0.646608 0.659521 0.383314 
69.787949 29.286011 82.778473 0.596927 0.783037 0.174731 
69.768021 29.246090 82.659187 0.659765 0.751400 -0.010419 
69.789932 29.247869 82.599854 0.299828 0.844611 0.443549 
69.832733 29.270470 82.570450 0.419127 0.826142 0.376593 
69.854103 29.271690 82.510277 0.525811 0.815612 0.241454 
69.879494 29.276930 82.455879 0.468928 0.833753 0.291484 
68.326103 27.706970 80.132156 0.583262 0.787515 -0.199063 
68.306374 27.626101 79.827103 0.775694 0.630602 0.025272 
68.311752 27.611059 79.742493 0.910827 0.412713 -0.007840 
68.302643 27.581530 79.636963 0.581400 0.568891 0.581667 
68.360687 27.619049 79.628181 0.267380 0.415557 0.869379 
68.412354 27.650200 79.610222 0.566426 0.556243 0.608075 
68.420532 27.637920 79.529533 0.566922 0.585922 0.579046 
68.471458 27.668341 79.510536 0.527645 0.712371 0.462729 
68.471100 27.647520 79.417450 0.456523 0.872259 0.175362 
68.504784 27.660709 79.373528 0.593934 0.754250 0.279911 
68.511612 27.647039 79.290733 0.840337 0.421141 0.341283 
68.553726 27.668650 79.258980 0.397693 0.561375 0.725740 
70.232300 29.266150 81.322372 0.268693 0.889894 0.368635 
70.184227 29.238331 81.344307 -0.169020 0.773609 0.610706 
70.254066 29.267670 81.262299 0.176965 0.929094 0.324757 
70.305237 29.298599 81.244873 0.443636 0.826341 0.346911 
70.302856 29.275930 81.149696 0.527807 0.825545 0.199740 
70.323410 29.276211 81.087784 0.471695 0.829242 0.299768 
70.375282 29.307850 81.071388 0.227431 0.922885 0.310738 
70.381721 29.293989 80.988907 0.614812 0.783270 -0.092161 
70.385307 29.277269 80.902252 0.524210 0.849410 -0.060874 
70.406837 29.278490 80.841652 0.270940 0.959829 -0.072944 
70.389099 29.240360 80.723793 0.573276 0.740814 0.350069 
70.437462 29.268480 80.702263 0.069974 0.702117 0.708615 
70.477341 29.247330 80.484077 0.709692 0.692434 -0.129890 
70.480721 29.230330 80.396790 0.601661 0.769141 0.215466 
70.513458 29.242750 80.352371 0.564319 0.766839 0.305780 
70.522186 29.231100 80.272842 0.619315 0.592681 0.514953 
70.568230 29.256870 80.247864 0.820149 0.432126 0.374997 
70.563927 29.232121 80.149178 0.806042 0.582478 0.104953 
70.582672 29.230490 80.084190 0.528261 0.654007 0.541493 
70.623970 29.251490 80.052231 0.463052 0.649284 0.603335 
70.666962 29.274200 80.022781 0.157245 0.896013 0.415252 
70.643272 29.306259 79.930588 0.113418 0.947110 0.300198 
70.679626 29.266451 79.948822 0.677055 0.734901 0.038935 
70.741737 29.246880 79.669472 0.965845 -0.166775 0.198316 
69.220413 27.676180 77.243958 0.625169 0.512021 0.589065 
69.226990 27.703600 77.347679 0.996083 -0.077432 -0.042687 
69.274857 27.710119 77.230087 0.747252 0.367287 0.553818 
69.275360 27.689810 77.136726 0.948029 -0.024362 0.317252 
69.312149 27.705990 77.096809 0.925086 -0.098693 0.366709 
69.288727 27.661591 76.968063 0.831581 0.444054 0.333601 
69.312202 27.664351 76.908417 0.906673 0.216701 0.361918 
69.345291 27.676790 76.862991 0.677909 0.402857 0.614935 
69.383507 27.694389 76.825127 0.605022 0.705801 0.368502 
69.386909 27.676929 76.735771 0.797703 0.602611 -0.023002 
69.450462 27.657310 76.451851 -0.199475 0.483093 0.852544 
69.502434 27.688740 76.434273 0.327382 0.877395 0.350713 
69.514198 27.679661 76.357079 0.441710 0.787739 0.429371 
69.557381 27.702240 76.326477 0.595452 0.668709 0.445270 
69.567284 27.691271 76.246460 0.994876 0.084620 -0.055322 
69.560577 27.663540 76.141731 0.929263 0.367171 0.040701 
69.572639 27.654720 76.064827 0.925243 0.371155 -0.078550 
69.581947 27.643120 75.983788 0.837572 0.533732 0.116637 
69.593224 27.633480 75.905617 0.969511 0.244252 0.019709 
71.143623 29.135500 77.931458 0.774755 0.616989 0.138127 
71.163307 29.134600 77.866890 0.554082 0.793929 0.250340 
71.504066 29.208040 77.152267 0.747793 0.662807 -0.038630 
71.521500 29.204781 77.083977 0.494228 0.818329 0.293388 
71.558449 29.221260 77.044998 0.571423 0.683549 0.454133 
71.578957 29.221100 76.981293 0.536546 0.782077 0.316977 
71.605713 29.227249 76.926949 0.189501 0.928219 0.320153 
71.632446 29.233391 76.872566 0.505249 0.808738 0.301110 
71.660858 29.241211 76.820686 0.361750 0.841376 0.401527 
65.600739 27.916639 89.778511 0.754622 0.616941 -0.223451 
65.594940 27.891970 89.684731 0.347286 0.905498 0.243857 
65.636673 27.913589 89.654030 0.426511 0.884186 0.190534 
65.629631 27.887699 89.558517 0.495701 0.816889 -0.294911 
65.601646 27.841379 89.435097 0.703925 0.610638 -0.362782 
65.580353 27.801559 89.320473 0.558377 0.789660 -0.254266 
65.568459 27.770880 89.218277 0.779659 0.589831 -0.210313 
65.696114 27.799841 88.956123 0.302041 0.939105 -0.163872 
65.695267 27.779900 88.868423 0.458300 0.880390 -0.121958 
65.700203 27.765560 88.788383 0.360754 0.921685 0.142662 
65.731339 27.776800 88.743332 0.267371 0.953075 0.141993 
65.745193 27.771160 88.675163 0.355973 0.931537 0.074307 
65.769379 27.775620 88.620796 0.562133 0.824247 0.067995 
65.782303 27.769060 88.551308 0.813876 0.572306 -0.100363 
65.757637 27.725790 88.431473 0.591835 0.679993 0.432829 
65.807419 27.755211 88.411293 0.524661 0.667141 0.528823 
65.824997 27.753189 88.347977 0.804519 0.535459 0.256968 
67.478447 29.311741 90.308037 0.687080 0.726327 -0.019239 
67.491051 29.305071 90.239067 0.520310 0.820126 0.238058 
67.528168 29.322371 90.203018 0.482776 0.813455 0.324373 
67.531578 29.306700 90.121613 0.748692 0.653497 -0.111365 
67.525703 29.281940 90.027657 0.486932 0.862420 0.138306 
67.557632 29.294149 89.984573 0.678268 0.733830 0.038038 
67.554100 29.271660 89.893677 0.276621 0.823199 0.495806 
67.573837 29.345791 89.865013 -0.171629 0.394710 0.902634 
67.613617 29.310860 89.887756 -0.113801 0.565198 0.817068 
66.034218 27.745970 87.670982 0.470904 0.871896 0.134342 
66.063927 27.755739 87.623734 0.201794 0.947251 0.248988 
66.031052 27.665560 87.316940 0.329653 0.811669 0.482205 
66.072212 27.686520 87.285027 0.420858 0.879927 0.220469 
66.083817 27.678530 87.213150 0.309826 0.882547 0.353721 
66.119331 27.693960 87.173592 0.540110 0.819449 0.191794 
66.126579 27.681681 87.095749 0.511114 0.800107 0.313991 
66.169502 27.704359 87.066208 0.441144 0.831071 0.338691 
66.179047 27.694330 86.991417 0.665843 0.734931 0.128568 
66.193443 27.689030 86.923157 0.700779 0.671838 0.239881 
66.221130 27.696779 86.872940 0.310784 0.729417 0.609396 
66.262657 27.718090 86.841476 0.678047 0.700334 0.223126 
66.262177 27.698200 86.752968 0.642024 0.707318 0.295814 
66.296013 27.711960 86.711037 0.777303 0.551591 0.302567 
66.363663 27.719980 86.539131 0.748501 0.643772 -0.159073 
66.355469 27.692471 86.439903 0.667152 0.744028 0.036473 
66.369759 27.687019 86.371262 0.611998 0.771790 0.172622 
66.394051 27.691389 86.316231 0.374709 0.790755 0.484045 
66.420532 27.697901 86.264168 0.849115 0.523826 0.067898 
66.438843 27.696381 86.200928 0.767012 0.639227 -0.055508 
66.431236 27.669399 86.102280 0.763624 0.606101 -0.222533 
66.429207 27.647869 86.011162 0.440664 0.894799 -0.071755 
66.444763 27.643620 85.944054 0.246773 0.954989 0.164621 
66.475082 27.653879 85.897110 0.198214 0.915420 0.350310 
66.459732 27.694550 85.819687 0.051356 0.888276 0.456430 
68.189217 29.261730 87.893494 -0.184838 0.748076 0.637352 
68.142273 29.234859 87.916512 -0.070949 0.717516 0.692920 
68.250443 29.302629 87.890060 0.213615 0.903948 0.370469 
68.273567 29.306049 87.834373 0.625254 0.777117 0.071735 
68.266769 29.280020 87.737556 0.797364 0.590206 -0.125969 
68.281898 29.275551 87.670807 0.387283 0.915995 0.104713 
68.300262 29.274269 87.608498 0.788532 0.608498 -0.089152 
68.281647 29.236580 87.495293 0.600524 0.799384 0.018876 
68.300087 29.235340 87.432983 0.608844 0.792550 0.034264 
68.310097 29.225809 87.359047 0.360835 0.932593 -0.008274 
68.328621 29.224649 87.296806 0.279925 0.959988 -0.008039 
68.344231 29.220610 87.230522 0.264418 0.963717 -0.036506 
68.404984 29.222179 87.050713 0.320248 0.929423 -0.183342 
68.402328 29.200121 86.959099 0.161424 0.975461 0.149729 
68.435310 29.213181 86.916672 0.075034 0.835547 0.544271 
68.480461 29.238251 86.891083 0.448190 0.825038 0.344149 
68.489082 29.227280 86.814949 0.727187 0.685014 -0.044212 
68.495071 29.213699 86.735123 0.418631 0.885453 0.201796 
68.523178 29.221939 86.685898 0.390995 0.809025 0.438864 
68.564163 29.242880 86.654503 0.362024 0.739467 0.567563 
68.590607 29.249470 86.602959 0.617518 0.601947 0.506292 
67.085083 27.723869 84.336609 0.663391 0.745303 0.066605 
67.091003 27.749491 84.434227 0.808624 0.555156 -0.194752 
67.110413 27.729111 84.282333 0.329459 0.904153 0.271964 
68.661003 29.201740 86.170593 0.637457 0.657985 0.400879 
68.685799 29.206671 86.116592 0.668956 0.628696 0.396535 
68.708138 29.209169 86.059158 0.860812 0.409935 0.301589 
68.737778 29.218870 86.011864 0.705908 0.544131 0.453447 
68.762558 29.223770 85.957787 0.407472 0.740689 0.534177 
68.797478 29.238701 85.917839 0.372784 0.851054 0.369783 
68.818153 29.239519 85.857986 0.742140 0.659631 0.118808 
68.822388 29.224091 85.775200 0.680809 0.669122 0.297953 
68.846481 29.228291 85.720078 0.803452 0.595367 0.001919 
68.848686 29.210831 85.634354 0.702693 0.705911 -0.088954 
67.299202 27.637751 83.288567 0.899153 0.318729 -0.299892 
67.266861 27.585800 83.153183 0.713251 0.596163 0.368595 
67.313202 27.611731 83.127892 0.763121 0.418433 0.492505 
67.327393 27.605820 83.057549 0.438211 0.409089 0.800386 
67.383957 27.641899 83.046623 0.730450 0.106217 0.674656 
67.416649 27.654301 83.002190 0.312068 0.331881 0.890207 
67.471222 27.688400 82.988480 0.594054 0.457251 0.661832 
67.487007 27.684059 82.920326 0.811248 0.410574 0.416301 
67.515427 27.692240 82.869904 0.734606 0.537282 0.414345 
67.534767 27.691410 82.806686 0.685093 0.715111 0.138797 
67.548317 27.684839 82.735313 0.744755 0.666997 -0.021324 
67.541527 27.658091 82.635262 0.748928 0.658511 0.073956 
67.559853 27.656231 82.570518 0.855906 0.463688 0.228949 
69.130867 29.155029 84.514313 0.674683 0.500534 0.542465 
69.156776 29.160919 84.461288 0.646646 0.526991 0.551479 
67.615753 27.611380 82.195938 0.193746 0.335258 0.921990 
67.666290 27.641470 82.176521 0.570804 0.550499 0.609207 
67.690041 27.644951 82.119240 0.725922 0.491805 0.480797 
67.726227 27.660780 82.079536 0.574227 0.657424 0.487912 
67.744751 27.659069 82.014839 0.364034 0.822714 0.436602 
67.778770 27.672750 81.972054 0.389273 0.904611 0.173624 
67.787567 27.661360 81.893532 0.402872 0.888862 -0.218218 
67.769989 27.623751 81.777603 0.507934 0.846371 -0.160183 
67.789917 27.623400 81.714760 0.126944 0.988550 0.081571 
69.477837 29.241489 83.838280 0.890026 0.414291 -0.190307 
69.458023 29.201839 83.720078 0.732992 0.670287 0.115920 
69.478661 29.202440 83.659317 0.482529 0.704916 0.519865 
69.527863 29.231449 83.639168 0.516162 0.751874 0.410198 
69.532990 29.216600 83.556297 0.840227 0.539932 -0.049917 
69.544189 29.207790 83.482040 0.889019 0.449273 0.088306 
69.548576 29.192190 83.398048 0.775389 0.626517 0.079046 
69.562073 29.185631 83.326973 0.624418 0.658130 0.420675 
69.595482 29.198910 83.284264 0.389761 0.728896 0.562847 
69.637573 29.220819 83.253922 -0.021394 0.912032 0.409561 
68.116592 27.685671 80.991966 0.723565 0.580802 0.372992 
68.137337 27.686069 80.930008 0.864437 0.438461 0.245967 
69.719391 29.202221 82.918404 0.654524 0.589539 0.473331 
69.745682 29.208380 82.865402 0.602887 0.614953 0.508291 
69.784157 29.226690 82.829857 0.651775 0.477138 0.589515 
69.818413 29.240770 82.788254 0.853463 0.433716 0.288951 
69.818237 29.220520 82.697273 0.531673 0.835344 0.139729 
69.848740 29.230860 82.650261 0.406365 0.861786 0.303633 
69.866203 29.228180 82.584511 0.546131 0.816731 0.186254 
69.885353 29.227190 82.521172 0.677389 0.699576 0.227457 
69.909866 29.231550 82.465508 0.846158 0.489827 0.209967 
68.338783 27.581650 79.839157 0.811997 0.581504 -0.050146 
68.344452 27.566870 79.754959 0.564633 0.801880 0.195394 
68.380920 27.582861 79.715118 0.539708 0.786622 0.299902 
68.387192 27.568661 79.631706 0.521119 0.576415 0.629429 
68.438789 27.599760 79.613670 0.589536 0.558282 0.583754 
68.457367 27.597860 79.547997 0.172851 0.804706 0.567953 
68.511124 27.631109 79.533073 0.325277 0.895302 0.304352 
68.521431 27.620939 79.455406 0.567201 0.818341 0.092744 
68.541603 27.620609 79.391953 0.729681 0.683527 0.018874 
68.535713 27.594200 79.290756 0.710709 0.643348 0.284599 
68.567322 27.605301 79.243790 0.525875 0.701985 0.480284 
70.274727 29.232639 81.349411 0.535696 0.777781 0.328765 
70.301422 29.239080 81.296494 0.299266 0.884731 0.357339 
70.320297 29.237680 81.232193 0.427086 0.842640 0.327957 
70.370277 29.267441 81.213074 0.320136 0.907091 0.273311 
70.380058 29.256920 81.135513 0.210389 0.947886 0.239267 
70.412392 29.268999 81.090736 0.512401 0.836722 0.193238 
70.428261 29.264570 81.021980 0.598799 0.799981 -0.038344 
70.428619 29.244579 80.930603 0.771306 0.629159 0.096157 
70.462517 29.258221 80.888046 0.707964 0.658496 0.255285 
70.445580 29.220860 80.771370 0.313553 0.946838 0.071988 
70.476532 29.231520 80.724449 0.401388 0.872393 0.278958 
70.524193 29.218130 80.517632 0.620746 0.770386 -0.145537 
70.523933 29.197451 80.425034 0.653067 0.677912 0.337548 
70.558830 29.212061 80.383797 0.612781 0.689086 0.386858 
70.567673 29.200491 80.304413 0.814098 0.569536 0.113460 
70.580833 29.193251 80.231308 0.847697 0.491827 0.198786 
70.604263 29.196329 80.173218 0.691869 0.660701 0.291189 
70.631973 29.203690 80.121384 0.564972 0.707168 0.425112 
70.654373 29.205721 80.061737 0.476233 0.489645 0.730376 
70.714912 29.246071 80.058037 -0.026164 0.469350 0.882625 
69.236603 27.719030 77.701729 0.487023 0.847177 0.212370 
69.188469 27.691410 77.724823 -0.166866 0.787201 0.593693 
69.181801 27.741270 77.656837 -0.166866 0.787201 0.593693 
69.237038 27.636280 77.326736 0.257122 0.859394 0.441962 
69.287758 27.666491 77.307388 0.462742 0.811446 0.356965 
69.283440 27.641310 77.206947 0.930519 0.361672 -0.057691 
69.287163 27.624201 77.118294 0.951940 0.306176 -0.008155 
69.276756 27.592871 77.008759 0.618532 0.632047 0.466835 
69.337440 27.633101 77.004066 0.350140 0.851212 0.390947 
69.333801 27.608549 76.904419 0.781459 0.496680 0.377665 
69.376503 27.630659 76.873154 0.575032 0.329876 0.748679 
69.413673 27.647209 76.833740 0.570980 0.660663 0.487347 
69.431519 27.644291 76.765747 0.733449 0.678735 0.037038 
69.580078 27.689381 76.513283 0.396963 0.916294 0.053148 
69.597961 27.686470 76.445213 0.125367 0.992044 0.011505 
69.609070 27.676701 76.367027 0.466683 0.863606 -0.190764 
69.586517 27.632980 76.238831 0.516374 0.847672 -0.121700 
69.610687 27.636360 76.179947 0.403499 0.912142 -0.072014 
69.604332 27.608940 76.075661 0.750678 0.646540 -0.135901 
69.610947 27.594610 75.990623 0.777058 0.623980 -0.082650 
69.607353 27.569929 75.890297 0.910918 0.391891 -0.129035 
71.174637 29.089960 77.941727 0.502486 0.721101 0.476992 
71.209007 29.103870 77.899040 0.166904 0.821594 0.545092 
71.542503 29.169901 77.173653 0.924225 0.376863 0.061499 
71.546837 29.153360 77.085663 0.926171 0.221599 0.305125 
71.572929 29.158850 77.030357 0.722326 0.295506 0.625237 
71.614517 29.180031 76.998360 0.268878 0.579541 0.769309 
71.660454 29.205610 76.972878 0.624601 0.603196 0.496011 
71.672157 29.196510 76.895882 0.654064 0.603721 0.455764 
71.711052 29.214960 76.859802 0.460940 0.636585 0.618299 
65.656883 27.877991 89.736420 0.121282 0.991824 0.039691 
65.666168 27.868010 89.662651 0.574328 0.801356 -0.167262 
65.661583 27.844469 89.570374 0.709634 0.635578 -0.304073 
65.644997 27.809231 89.462097 0.648807 0.713926 -0.263361 
65.647346 27.792440 89.378937 0.440395 0.896894 -0.040427 
65.671959 27.797350 89.325378 0.216584 0.976043 -0.020768 
65.745064 27.753929 88.904060 0.407382 0.870586 0.275897 
65.773857 27.762911 88.855942 0.150079 0.953001 0.263184 
65.797203 27.766529 88.800499 0.518785 0.854623 0.021962 
65.802917 27.752939 88.721458 0.740653 0.663083 -0.108419 
65.796707 27.727699 88.626427 0.928886 0.343587 -0.138273 
65.780663 27.692820 88.518143 0.787200 0.602845 0.129979 
65.817390 27.709490 88.480499 0.561599 0.709174 0.426238 
65.834808 27.707300 88.416977 0.741781 0.581148 0.334706 
65.859161 27.711880 88.362732 0.654588 0.680545 0.329201 
67.517616 29.276291 90.329964 0.914255 0.404928 0.013054 
67.520409 29.260000 90.247772 0.903154 0.241172 0.355174 
67.554268 29.274111 90.207329 0.700018 0.550058 0.455424 
67.565102 29.265690 90.135918 0.794218 0.596215 0.117236 
67.597198 29.278061 90.093079 0.507820 0.824777 0.248720 
67.580353 29.242531 89.984306 0.565158 0.824953 0.007078 
67.611862 29.254320 89.940643 0.088253 0.879200 0.468208 
67.649696 29.272301 89.905487 0.575148 0.632499 0.518796 
66.102043 27.737511 87.731140 0.486580 0.867035 0.107188 
66.117622 27.733459 87.664848 0.683213 0.730126 0.011642 
66.123947 27.681620 87.411087 0.247618 0.966010 -0.074236 
66.110237 27.687550 87.480049 0.177602 0.981711 -0.068567 
66.135223 27.673300 87.338799 0.295961 0.951344 0.085736 
66.164413 27.682541 87.290733 0.015657 0.981366 0.191508 
66.187866 27.686150 87.234879 0.498166 0.864657 -0.064802 
66.185402 27.664339 87.143890 0.309036 0.949790 0.048953 
66.208687 27.667780 87.087761 0.391670 0.900249 0.190120 
66.236366 27.675520 87.037567 0.274729 0.956700 0.096175 
66.244827 27.664400 86.961288 0.247223 0.943808 0.219333 
66.289726 27.689020 86.934433 0.517760 0.743691 0.422905 
66.306053 27.685600 86.868767 0.635261 0.758865 0.143412 
66.314590 27.674540 86.792511 0.738835 0.673387 -0.025925 
66.322937 27.663271 86.715927 0.875436 0.474456 0.092213 
66.392227 27.672899 86.546257 0.563266 0.826247 0.006860 
66.413399 27.674200 86.487030 0.069277 0.987549 0.141239 
66.442383 27.683170 86.438423 -0.068588 0.968814 0.238109 
66.486687 27.707220 86.410744 0.208528 0.973141 0.097531 
66.462418 27.663851 86.289436 0.637441 0.755769 -0.149939 
66.475929 27.657600 86.219658 0.712385 0.689744 -0.129464 
66.461159 27.623541 86.111191 0.444878 0.892215 -0.077688 
66.487694 27.630091 86.059143 0.399062 0.916914 -0.004352 
66.494186 27.616920 85.979637 0.408993 0.904477 0.121020 
66.521561 27.624269 85.928673 0.109096 0.962895 0.246842 
68.284401 29.261690 87.904930 0.812902 0.560640 0.157713 
68.296837 29.254589 87.834579 0.769365 0.638808 0.001579 
68.301880 29.240179 87.754013 0.606265 0.794885 0.024509 
68.319328 29.238001 87.690460 0.761686 0.646575 -0.042132 
68.304199 29.203711 87.582077 0.800046 0.599485 0.023332 
68.333038 29.212730 87.534119 0.614422 0.736370 0.283275 
68.356888 29.216820 87.479271 0.595478 0.719348 0.357693 
68.386673 29.226761 87.432587 0.686152 0.696800 0.208963 
68.387543 29.208191 87.346039 0.596329 0.802731 -0.003950 
68.392174 29.193331 87.264648 0.561356 0.821314 -0.101603 
68.471313 29.193550 87.022324 0.340366 0.913439 0.223116 
68.494110 29.196569 86.965851 0.508194 0.806832 0.301265 
68.521339 29.203960 86.915489 0.734536 0.639773 0.226159 
68.526787 29.189840 86.834961 0.609501 0.738476 0.288378 
68.571800 29.214769 86.809181 0.616651 0.675480 0.404311 
68.568993 29.192490 86.717163 0.605420 0.738354 0.297154 
68.598663 29.202271 86.670097 0.467451 0.711988 0.523987 
68.636330 29.219940 86.634117 0.332976 0.587267 0.737729 
67.125832 27.688450 84.360474 0.615708 0.621583 0.484291 
67.155663 27.698130 84.312447 0.694622 0.606711 0.386526 
68.695007 29.160561 86.185501 0.729210 0.468775 0.498501 
68.724533 29.170151 86.138077 0.685031 0.644088 0.340416 
68.727707 29.153690 86.053947 0.646823 0.713727 0.268727 
68.756477 29.162531 86.005440 0.443345 0.671637 0.593590 
68.804337 29.190241 85.983513 0.175204 0.671805 0.719709 
68.845192 29.211040 85.951851 0.595260 0.708675 0.378743 
68.842957 29.189190 85.860046 0.373221 0.884409 0.280225 
68.903587 29.229561 85.855988 0.239712 0.913523 0.328655 
68.905197 29.211510 85.769501 0.593557 0.783702 -0.183036 
68.896339 29.183069 85.668312 0.580514 0.802398 -0.138419 
68.858627 29.201010 85.559387 0.511029 0.858831 -0.035475 
68.907257 29.174219 85.594742 0.643407 0.760177 -0.090321 
67.323799 27.586140 83.289848 0.811377 0.515541 -0.275470 
67.316406 27.558861 83.189369 0.689302 0.721479 -0.065804 
67.319473 27.541920 83.103462 0.576097 0.659889 0.482346 
67.375023 27.576990 83.091087 0.538417 0.589822 0.601845 
67.373917 27.555910 82.999283 0.592697 0.427466 0.682630 
67.436363 27.597811 82.996590 0.424255 0.160412 0.891222 
67.469917 27.611071 82.953362 0.719030 0.370763 0.587819 
67.494637 27.615580 82.897743 0.433334 0.581835 0.688251 
67.550842 27.651310 82.886330 0.390679 0.756156 0.524975 
67.565269 27.645590 82.816208 0.834617 0.530211 0.149302 
67.589333 27.649441 82.759613 0.627830 0.757797 0.177688 
67.596764 27.636770 82.679588 0.648189 0.750509 -0.128791 
69.167587 29.116261 84.532997 0.441404 0.325107 0.836342 
69.215057 29.143560 84.510406 0.631621 0.264644 0.728710 
67.699928 27.598640 82.190430 0.853821 0.458670 0.246192 
67.716904 27.595381 82.123573 0.666351 0.433349 0.606783 
67.764481 27.622540 82.099983 -0.001816 0.545251 0.838271 
67.828239 27.665779 82.099297 0.392684 0.679779 0.619435 
67.838623 27.655960 82.023071 0.728078 0.685475 0.005150 
67.842957 27.640129 81.938263 0.728049 0.661289 -0.180669 
67.815567 27.592730 81.808418 0.394798 0.917668 -0.044949 
67.846390 27.603201 81.761032 0.172639 0.965393 0.195480 
69.471367 29.159660 83.795647 0.822279 0.546223 0.159680 
69.515533 29.183670 83.768349 0.468666 0.834630 0.289388 
69.526543 29.174669 83.693901 0.653964 0.677385 0.336869 
69.554482 29.182520 83.643517 0.904807 0.397019 0.153946 
69.540588 29.148710 83.533577 0.805854 0.591949 0.013970 
69.553909 29.141991 83.462311 0.552507 0.774542 0.307929 
69.595261 29.163179 83.430946 0.403502 0.888166 0.219882 
69.600952 29.148849 83.348763 0.339575 0.840574 0.422049 
69.660942 29.188610 83.343979 0.199430 0.736716 0.646124 
69.683510 29.191080 83.285820 0.501715 0.810134 0.303258 
68.146667 27.639130 81.000793 0.654281 0.747210 0.116588 
68.161499 27.633610 80.930344 0.804279 0.593185 0.035585 
69.773399 29.180479 82.961861 0.305205 0.920711 0.243189 
69.799057 29.186010 82.907997 0.527100 0.839317 0.133091 
69.802681 29.169531 82.822533 0.780124 0.538448 0.318561 
69.834251 29.180941 82.777061 0.774095 0.526980 0.350812 
69.857567 29.184111 82.719772 0.699048 0.617659 0.360318 
69.886093 29.192471 82.669907 0.569596 0.631582 0.525989 
69.922638 29.208839 82.631569 0.422045 0.852916 0.307266 
69.922958 29.189039 82.541191 0.742501 0.662861 -0.096475 
69.920517 29.166460 82.446777 0.913507 0.351302 -0.205162 
68.382141 27.527691 79.774643 0.763664 0.584943 0.273237 
68.397560 27.522619 79.704437 0.604342 0.729936 0.319317 
68.433342 27.537920 79.663597 0.178706 0.822137 0.540514 
68.469742 27.553829 79.623627 0.138235 0.726472 0.673148 
68.536758 27.600370 79.627892 0.337286 0.654771 0.676397 
68.554283 27.597401 79.560677 0.718332 0.682902 0.132830 
68.560669 27.583269 79.477341 0.706789 0.704021 0.069311 
68.580322 27.582411 79.413132 0.722992 0.689750 0.039070 
68.585152 27.566710 79.327454 0.389599 0.911944 0.128728 
68.613983 27.575029 79.276466 0.237356 0.899793 0.366108 
68.597427 27.614901 79.194649 0.199272 0.896188 0.396406 
68.650703 27.591249 79.236908 0.391816 0.835362 0.385553 
70.309700 29.191681 81.365639 0.030607 0.826127 0.562652 
70.364830 29.226601 81.353996 -0.109956 0.941266 0.319263 
70.384666 29.226170 81.291130 0.279314 0.953192 0.115795 
70.400391 29.221600 81.222237 0.301278 0.920196 0.249943 
70.444267 29.245260 81.194283 0.448309 0.874344 0.185855 
70.455017 29.235689 81.118118 0.606566 0.788015 0.105402 
70.470657 29.231010 81.049026 0.719690 0.683970 -0.119297 
70.444221 29.184120 80.918617 0.792787 0.556025 0.249649 
70.477989 29.197620 80.875847 0.530728 0.737828 0.417060 
70.512833 29.212200 80.834663 0.373306 0.912617 0.166651 
70.517326 29.196320 80.749191 0.751976 0.648404 -0.118762 
70.542763 29.140129 80.417648 0.248557 0.551256 0.796452 
70.588951 29.166071 80.392906 0.686726 0.609567 0.396026 
70.587288 29.143930 80.298157 0.864438 0.478115 0.155415 
70.616547 29.152861 80.248627 0.587234 0.743513 0.319914 
70.627213 29.143089 80.171822 0.607680 0.720214 0.334688 
70.662498 29.158060 80.131081 0.613038 0.696821 0.372323 
70.680717 29.155880 80.065323 0.334774 0.602682 0.724362 
70.743301 29.198290 80.064598 0.233089 0.338089 0.911792 
69.258057 27.663271 77.697639 0.784465 0.577723 -0.225504 
69.204269 27.665751 77.560402 0.680444 0.687273 -0.254268 
69.259079 27.643499 77.605309 0.461446 0.879415 -0.117033 
69.294762 27.616930 77.375977 0.498199 0.835930 0.230258 
69.310387 27.611811 77.304947 0.811228 0.584616 -0.011517 
69.316704 27.597309 77.220161 0.633887 0.772565 -0.036474 
69.327553 27.587370 77.142014 0.750049 0.658040 -0.066405 
69.342812 27.581860 77.070343 0.180546 0.935669 0.303196 
69.375023 27.593420 77.023651 0.746517 0.661204 0.074304 
69.364517 27.561939 76.913857 0.894471 0.404400 0.190740 
69.393547 27.570280 76.862419 0.416312 0.315337 0.852788 
69.458443 27.614759 76.863968 0.613616 0.426100 0.664766 
69.459396 27.594810 76.771011 0.723896 0.661557 0.195749 
69.440109 27.632030 76.684029 0.692049 0.706348 0.148796 
69.483902 27.598570 76.712807 0.549130 0.811172 0.201135 
69.622398 27.654440 76.539917 -0.080936 0.960517 0.266189 
69.665001 27.676460 76.508537 0.331036 0.936406 0.116447 
69.678207 27.668800 76.433487 0.353749 0.931646 -0.083055 
69.677330 27.646919 76.337502 0.313143 0.923182 -0.222884 
69.671242 27.619761 76.233704 0.440862 0.848532 -0.292633 
69.647598 27.574860 76.103706 0.727032 0.666123 -0.166448 
69.657112 27.563431 76.022972 0.739011 0.670176 -0.068756 
71.211220 29.050030 77.960281 0.046536 0.744261 0.666266 
71.258377 29.076880 77.936699 0.414734 0.756112 0.506251 
71.247818 29.122271 77.862991 0.533062 0.752392 0.386978 
71.275307 29.073151 77.867989 0.712705 0.652420 0.257683 
71.541786 29.092100 77.136192 0.856390 0.467573 0.219022 
71.563957 29.093611 77.074997 0.695607 0.539358 0.474577 
71.600632 29.109810 77.035591 0.386441 0.502028 0.773712 
71.647842 29.136700 77.012039 0.677835 0.311431 0.665996 
71.662323 29.130390 76.939217 0.705762 0.478147 0.522758 
71.701088 29.148710 76.902946 0.704163 0.455666 0.544539 
71.725563 29.152531 76.845139 0.807630 0.341449 0.480777 
65.695953 27.860830 89.843842 -0.290910 0.922639 0.253196 
65.737617 27.882401 89.813110 0.349025 0.936038 0.044881 
65.737801 27.863520 89.727257 0.575841 0.785841 -0.225525 
65.707939 27.815310 89.601402 0.719943 0.589772 -0.365856 
65.688423 27.777170 89.489212 0.711800 0.651442 -0.262612 
65.682701 27.752501 89.395317 0.400548 0.887098 0.229386 
65.728844 27.778410 89.370430 0.581377 0.782308 0.223596 
65.655777 27.762470 89.217484 0.400920 0.871515 -0.282357 
65.726021 27.756540 89.280327 0.429293 0.901053 -0.061729 
65.779922 27.713430 88.919777 0.056268 0.855708 0.514390 
65.822960 27.736300 88.890694 0.235429 0.946172 0.222106 
65.825127 27.719240 88.806953 0.863858 0.477513 -0.160411 
65.821167 27.696171 88.714951 0.911803 0.383010 -0.148049 
65.813301 27.669260 88.617668 0.673236 0.725475 -0.142968 
65.820953 27.657520 88.541107 0.665454 0.745495 0.037537 
65.833633 27.650681 88.471237 0.806408 0.468788 0.360476 
65.871437 27.668421 88.435051 0.630610 0.558131 0.539278 
65.893082 27.670349 88.377167 0.748059 0.592231 0.299450 
67.517380 29.202259 90.298889 0.986082 0.087111 0.141613 
67.528976 29.194590 90.228539 0.618141 0.224835 0.753227 
67.594116 29.239309 90.230164 0.651835 0.398726 0.645081 
67.581039 29.207451 90.126549 0.653837 0.552590 0.516858 
67.630943 29.237270 90.107681 0.658273 0.596377 0.459360 
67.639618 29.226700 90.033302 0.683085 0.723044 0.102968 
67.657898 29.225540 89.971817 0.758423 0.622909 0.191779 
67.663139 29.211590 89.892723 0.955213 0.293974 -0.033882 
66.141052 27.700890 87.752457 0.862216 0.506405 0.011711 
66.145149 27.685560 87.670647 0.869206 0.494448 -0.001097 
66.124107 27.720480 87.586227 0.861613 0.491613 -0.126254 
66.152267 27.673180 87.592873 0.779800 0.619008 0.093491 
66.180641 27.681629 87.543777 0.617469 0.778009 0.115901 
66.169418 27.651251 87.441116 0.617587 0.779161 -0.107210 
66.180206 27.642450 87.368187 0.460582 0.826426 0.323859 
66.224823 27.666809 87.341003 0.460543 0.807011 0.369640 
66.216553 27.639290 87.242203 0.653081 0.753730 0.073320 
66.250343 27.653030 87.200340 0.135079 0.971248 0.196038 
66.259499 27.642599 87.125076 0.191111 0.975340 0.110402 
66.293114 27.656160 87.082947 0.166022 0.985468 0.035900 
66.291679 27.635321 86.993248 0.516739 0.854995 -0.044324 
66.298958 27.623011 86.915321 0.501459 0.764948 0.404220 
66.349052 27.652740 86.895523 0.388863 0.903081 0.182294 
66.333969 27.618460 86.787140 0.813508 0.580679 -0.031886 
66.353088 27.617769 86.725220 0.403194 0.847552 0.345094 
66.439407 27.644110 86.578743 0.338210 0.900920 0.271952 
66.439621 27.663811 86.667030 0.841071 0.268705 0.469465 
66.488449 27.672800 86.557503 0.021201 0.960362 0.277948 
66.491829 27.656601 86.474007 0.126960 0.970779 0.203640 
66.536133 27.680630 86.446320 0.324842 0.945682 -0.012779 
66.510368 27.635771 86.322990 0.394993 0.889586 -0.229382 
66.517143 27.622890 86.244019 0.405085 0.913235 -0.043675 
66.543503 27.629259 86.191757 0.516459 0.853216 -0.072751 
66.529060 27.595490 86.083687 0.639539 0.763604 -0.088880 
66.545593 27.592180 86.017937 0.090815 0.955143 0.281876 
66.593918 27.620150 85.995667 0.265859 0.934882 0.235191 
66.547974 27.630671 85.876373 0.189860 0.956916 0.219695 
66.598633 27.605200 85.913696 0.186478 0.962003 0.199440 
66.580917 27.643499 85.833023 0.024351 0.905159 0.424376 
66.641617 27.627911 85.884109 0.121212 0.930065 0.346824 
68.314110 29.216579 87.913971 0.831515 0.408597 0.376339 
68.341957 29.224649 87.864769 0.804301 0.512721 0.300362 
68.351936 29.215090 87.790993 0.641137 0.765475 0.054695 
68.352531 29.196280 87.704277 0.736366 0.645965 -0.201232 
68.344833 29.169291 87.606117 0.649489 0.754068 -0.097704 
68.349808 29.154770 87.525307 0.659313 0.728201 0.187164 
68.374367 29.159571 87.471451 0.790114 0.577072 0.206656 
68.384804 29.150410 87.398087 0.625467 0.662221 0.412618 
68.430428 29.175970 87.373207 0.654537 0.673218 0.344033 
68.440048 29.166010 87.298691 0.637170 0.743558 0.202822 
68.512482 29.159580 87.047142 0.922862 0.354974 0.149392 
68.519760 29.147270 86.969208 0.936111 0.165863 0.310139 
68.546661 29.154329 86.918388 0.907413 0.298754 0.295548 
68.553947 29.142010 86.840401 0.900071 0.377715 0.217265 
68.565567 29.133961 86.768379 0.585258 0.677259 0.445863 
68.609749 29.158070 86.741417 0.333128 0.842621 0.423103 
68.633919 29.162411 86.686737 0.409556 0.801083 0.436497 
68.664742 29.173321 86.641273 0.428147 0.683906 0.590730 
68.683128 29.246630 86.610817 0.277083 0.308550 0.909957 
67.153122 27.639740 84.365639 0.832343 0.449589 0.324154 
67.122299 27.629089 84.412292 0.493040 0.718982 0.489874 
67.163963 27.630619 84.291229 0.840310 0.469338 0.271295 
68.711952 29.102480 86.176643 0.241149 0.533656 0.810592 
68.760513 29.130911 86.155708 0.145390 0.830158 0.538237 
68.789017 29.139500 86.106873 0.493394 0.856657 0.150669 
68.803223 29.133909 86.038071 0.426142 0.812847 0.397092 
68.838028 29.148729 85.997971 0.683077 0.429748 0.590527 
68.871513 29.162230 85.956039 0.399688 0.713267 0.575760 
68.904320 29.175060 85.913139 0.253939 0.849987 0.461560 
68.936447 29.187220 85.869308 0.700030 0.660867 0.270578 
68.944977 29.176001 85.792473 0.808831 0.578634 -0.104761 
68.943520 29.154860 85.701622 0.747180 0.647830 -0.148455 
68.934029 29.125759 85.599487 0.797348 0.572019 -0.192434 
67.356171 27.542240 83.302017 0.613421 0.770317 -0.174144 
67.358597 27.524670 83.215286 0.607732 0.786299 -0.111340 
67.373062 27.519011 83.145348 0.519801 0.782438 0.342925 
67.397827 27.523560 83.089821 0.713837 0.599336 0.362261 
67.429207 27.534670 83.043556 0.173696 0.830975 0.528499 
67.460182 27.545380 82.996727 0.392133 0.564713 0.726176 
67.520157 27.584850 82.990608 -0.100560 0.732033 0.673807 
67.556084 27.600470 82.950729 0.099328 0.878380 0.467529 
67.589897 27.614000 82.907898 0.612552 0.765627 0.196457 
67.586243 27.590309 82.812317 0.485433 0.819253 0.305253 
67.630547 27.614250 82.784218 0.473926 0.870490 0.132821 
67.612892 27.576660 82.668877 0.698980 0.694485 -0.170637 
67.622749 27.566370 82.592201 0.567610 0.808663 -0.154542 
67.553871 27.574150 82.528641 0.205970 0.973005 -0.104102 
69.169960 29.043350 84.503197 0.610768 0.352077 0.709228 
69.203773 29.057079 84.461319 0.703780 0.580657 0.409306 
69.207413 29.116119 84.410011 0.986125 0.070018 0.150516 
69.227493 29.060789 84.405190 0.712405 0.666020 0.221127 
67.720413 27.542740 82.185753 0.846360 0.441821 0.297438 
67.742996 27.545059 82.126823 0.584428 0.365174 0.724633 
67.797394 27.578991 82.112862 0.276531 0.134957 0.951482 
67.841293 27.602501 82.084091 0.816403 0.136925 0.561015 
67.859421 27.600370 82.018822 0.832821 0.525936 0.172629 
67.869850 27.590570 81.942619 0.517726 0.853212 -0.063163 
67.883057 27.583540 81.870323 0.373966 0.924997 -0.067306 
67.892403 27.572630 81.792488 0.192167 0.980472 0.041801 
69.532631 29.125280 83.759193 0.781428 0.565911 0.262896 
69.556229 29.128811 83.702637 0.884344 0.398172 0.243711 
69.571648 29.124170 83.634422 0.838270 0.479700 0.259214 
69.600090 29.132521 83.584732 0.542916 0.797695 0.262536 
69.618263 29.130610 83.520393 0.756384 0.640424 0.133194 
69.636078 29.128361 83.455521 0.841786 0.498782 0.206428 
69.641403 29.113640 83.372803 0.501874 0.651768 0.568612 
69.691452 29.143499 83.353851 0.470137 0.453396 0.757234 
69.723991 29.155910 83.309921 0.659009 0.539589 0.523976 
68.197067 27.612860 81.038628 0.818895 0.569372 -0.072289 
68.196419 27.591881 80.946060 0.844186 0.528607 -0.089018 
69.820129 29.151501 82.994926 0.779177 0.578698 0.240816 
69.837662 29.148899 82.929420 0.816165 0.568444 0.103666 
69.842812 29.133940 82.846153 0.597316 0.780075 0.186273 
69.868118 29.139090 82.791718 0.684085 0.697930 0.211947 
69.880272 29.131109 82.718407 0.795474 0.503866 0.336660 
69.913071 29.143730 82.674667 0.289824 0.579271 0.761871 
