-6.716463 7.043237 46.697590 0.373470 0.922481 0.097721 
-6.679485 7.056618 46.634529 0.267600 0.941445 0.205113 
-6.663441 7.054918 46.549320 0.208248 0.943183 0.258920 
-6.607656 7.081845 46.506111 0.116956 0.973174 0.198126 
-6.601848 7.072765 46.410030 0.057812 0.979274 0.194116 
-6.541355 7.103083 46.371811 0.120841 0.965504 0.230650 
-6.520787 7.104632 46.291302 0.156701 0.972134 0.174360 
-6.489849 7.113652 46.221748 0.356155 0.921307 0.156033 
-6.463829 7.119124 46.146980 0.323605 0.940161 0.106662 
-6.454377 7.112651 46.054600 0.501601 0.862396 -0.068331 
-6.452734 7.100545 45.953899 0.206130 0.977409 0.046704 
-6.425031 7.107220 45.880821 0.298718 0.954110 0.021011 
-6.420003 7.097544 45.783630 0.228415 0.956717 0.180331 
-6.377998 7.114525 45.725700 0.296856 0.919815 0.256548 
-6.351248 7.120504 45.651550 0.172450 0.950933 0.256880 
-6.312404 7.135203 45.590240 0.212997 0.936286 0.279285 
-6.271419 7.151446 45.531200 0.173169 0.953754 0.245692 
-6.252458 7.151801 45.448700 0.403746 0.878132 0.256659 
-6.209510 7.169457 45.391731 0.399825 0.880419 0.254955 
-6.201254 7.162082 45.297760 0.413392 0.877792 0.242050 
-6.150104 7.185653 45.249519 0.353630 0.917661 0.181229 
-6.169710 7.158165 45.125751 0.328265 0.943623 -0.042640 
-6.134339 7.170344 45.060631 0.148980 0.987538 0.050723 
-6.138600 7.153917 44.953152 0.222648 0.964210 0.143966 
-6.084580 7.179553 44.907909 0.170721 0.954252 0.245473 
-6.069921 7.176774 44.820580 0.220285 0.933220 0.283857 
-6.014285 7.203576 44.777069 0.282089 0.935226 0.213957 
-6.014413 7.190115 44.673870 0.360222 0.906306 0.221020 
-5.967134 7.210880 44.621391 0.575516 0.795625 0.189108 
-5.972730 7.193461 44.512249 0.613335 0.762440 0.206170 
-5.930072 7.210886 44.454788 0.533348 0.808790 0.247787 
-5.925060 7.201118 44.356949 0.345425 0.929389 0.130066 
-5.887392 7.214934 44.294109 0.294721 0.951295 0.090424 
-5.892599 7.197774 44.185211 0.247700 0.962389 0.111592 
-5.846302 7.217820 44.131599 0.240973 0.959470 0.146117 
-5.842753 7.206976 44.032028 0.259181 0.925826 0.275086 
-5.784130 7.235927 43.991650 0.179091 0.934174 0.308619 
-5.763173 7.237656 43.910740 0.198824 0.965451 0.168447 
-5.735791 7.244026 43.836731 0.465618 0.875419 0.129778 
-5.714534 7.245965 43.756100 0.462710 0.855679 0.231761 
-5.684394 7.254323 43.685020 0.605173 0.784424 0.135812 
-5.679273 7.244592 43.586941 0.358433 0.927824 0.103290 
-5.646528 7.254827 43.518620 0.366983 0.930149 0.012096 
-5.652569 7.237012 43.408421 0.242205 0.967330 0.074900 
-5.615043 7.250700 43.345211 0.280867 0.954079 0.104146 
-5.602764 7.246124 43.254711 0.143835 0.950613 0.275040 
-5.547716 7.272481 43.210388 0.141027 0.906114 0.398834 
-5.505794 7.289344 43.151890 0.153294 0.950283 0.271042 
-5.484020 7.291629 43.071590 0.390228 0.911597 0.129281 
-5.458877 7.296349 42.994911 0.403834 0.907351 0.116754 
-5.447381 7.291189 42.903419 0.663604 0.747141 0.037549 
-5.429819 7.290416 42.818470 0.490256 0.833151 0.255946 
-5.395341 7.301881 42.751831 0.473082 0.828857 0.298647 
-5.359388 7.314413 42.686760 0.275787 0.942264 0.189949 
-5.351357 7.306729 42.591400 0.286023 0.957652 0.033065 
-5.322333 7.314239 42.518768 0.117701 0.991569 0.054193 
-5.316558 7.304914 42.420879 0.293447 0.954680 0.049749 
-5.285779 7.313688 42.350109 0.106336 0.970453 0.216595 
-5.255812 7.321872 42.278450 0.311907 0.919239 0.240237 
-5.216449 7.336859 42.216980 0.318222 0.926595 0.200392 
-5.208671 7.328967 42.121132 0.564803 0.802130 0.193867 
-5.171422 7.342418 42.057320 0.509831 0.829953 0.226385 
-5.162059 7.335666 41.963131 0.476694 0.807971 0.346331 
-5.101622 7.365913 41.924561 0.307666 0.870339 0.384515 
-5.090613 7.360347 41.832111 0.325571 0.931744 0.160799 
-5.051741 7.374966 41.770012 0.219331 0.970873 0.096431 
-5.053610 7.360058 41.663441 0.202361 0.977250 0.063500 
-5.008216 7.379401 41.608429 0.086003 0.987780 0.129978 
-5.000584 7.371370 41.512161 0.188055 0.966272 0.175934 
-4.949842 7.394586 41.462959 0.264829 0.954556 0.136702 
-4.954844 7.377388 41.352810 0.357928 0.930453 0.078384 
-4.916315 7.391745 41.290230 0.343898 0.934776 0.089044 
-4.919762 7.375662 41.181690 0.567350 0.823417 0.009949 
-4.897494 7.378222 41.101261 0.520128 0.841130 0.148212 
-4.878434 7.378451 41.017281 0.338237 0.870450 0.357648 
-4.817850 7.408797 40.978802 0.173289 0.917020 0.359230 
-4.803933 7.405291 40.889141 0.066110 0.967222 0.245175 
-4.740893 7.437419 40.853359 0.115165 0.976027 0.184686 
-4.733313 7.429309 40.756699 0.167482 0.981778 0.089787 
-4.702715 7.437896 40.685280 0.381654 0.924305 -0.000938 
-4.708146 7.420334 40.574249 0.389978 0.920816 -0.003862 
-4.680812 7.426545 40.499180 0.454339 0.890219 -0.032947 
-4.698177 7.400308 40.374920 0.602727 0.797301 0.032104 
-4.666944 7.409341 40.304081 0.451172 0.863679 0.224727 
-4.647944 7.409491 40.219749 0.390554 0.789697 0.473123 
-4.581655 7.443972 40.187481 0.254483 0.826867 0.501527 
-4.554206 7.450252 40.112431 0.172386 0.934908 0.310211 
-4.510047 7.468665 40.055779 0.222133 0.954273 0.200052 
-4.492545 7.467716 39.969719 0.143548 0.984163 0.104009 
-4.465380 7.473782 39.894279 0.351653 0.936111 -0.006001 
-4.466547 7.459265 39.787540 0.223672 0.972094 0.070737 
-4.431188 7.471277 39.721100 0.418963 0.908003 0.000824 
-4.443205 7.448864 39.602280 0.455057 0.887633 0.070927 
-4.405709 7.462421 39.538151 0.397010 0.904393 0.156389 
-4.398440 7.454011 39.440559 0.292607 0.879607 0.375062 
-4.329276 7.490581 39.411449 0.180274 0.868764 0.461248 
-4.303328 7.495741 39.334499 0.091170 0.954755 0.283073 
-4.254467 7.517554 39.282909 0.156948 0.962936 0.219366 
-4.233205 7.519302 39.200729 0.137029 0.983055 0.121762 
-4.207976 7.523932 39.122921 0.406454 0.913638 0.007799 
-4.203342 7.513584 39.022221 0.249779 0.953808 0.166917 
-4.161940 7.529967 38.962311 0.451468 0.885289 0.111532 
-4.161074 7.516868 38.857349 0.260510 0.958195 0.118310 
-4.128778 7.526624 38.787281 0.439094 0.897394 0.043373 
-4.124302 7.516140 38.686249 0.207551 0.961919 0.177860 
-4.080339 7.534377 38.629101 0.317493 0.921897 0.222046 
-4.056127 7.538243 38.549969 0.104196 0.941296 0.321100 
-4.004636 7.561955 38.501202 0.218590 0.930775 0.293045 
-3.973565 7.570808 38.429668 0.191807 0.969752 0.150965 
-3.955911 7.569894 38.343159 0.365948 0.930580 0.010124 
-3.942837 7.565643 38.251518 0.196749 0.973801 0.114026 
-3.916676 7.570913 38.174438 0.478859 0.868360 0.129016 
-3.892871 7.574465 38.094700 0.398145 0.887409 0.232348 
-3.863792 7.581852 38.020828 0.585696 0.805246 0.092408 
-3.856349 7.573484 37.922760 0.305917 0.942430 0.135058 
-3.822845 7.584088 37.853790 0.425833 0.903493 0.048644 
-3.823883 7.569534 37.746151 0.151114 0.961305 0.230341 
-3.766098 7.597816 37.704300 0.072731 0.911312 0.405241 
-3.718488 7.618689 37.651070 0.173749 0.949582 0.260968 
-3.702153 7.616777 37.562790 0.456415 0.889652 0.014294 
-3.689453 7.612213 37.470409 0.269336 0.958745 0.090918 
-3.668527 7.613638 37.387211 0.544867 0.832081 0.103740 
-3.644876 7.617044 37.307041 0.392795 0.876941 0.276923 
-3.611074 7.627845 37.238239 0.473883 0.862448 0.177818 
-3.591412 7.628339 37.153530 0.257134 0.963910 0.068997 
-3.582275 7.621156 37.056980 0.448808 0.891324 -0.064132 
-3.574860 7.612712 36.958439 0.193500 0.971638 0.135933 
-3.536740 7.626650 36.894390 0.244111 0.939472 0.240420 
-3.502354 7.637863 36.826130 0.101402 0.948340 0.300614 
-3.464402 7.651674 36.761879 0.404165 0.896944 0.179281 
-3.446521 7.650846 36.674999 0.363600 0.920052 0.145939 
-3.423792 7.653551 36.593540 0.531911 0.844153 0.066906 
-3.405539 7.652987 36.507019 0.261783 0.938485 0.225203 
-3.371261 7.664109 36.438541 0.348815 0.907971 0.232198 
-3.336455 7.675614 36.370640 0.145202 0.985046 0.092738 
-3.335813 7.662189 36.264141 0.408215 0.903973 -0.127255 
-3.336755 7.647602 36.155800 0.196702 0.972476 0.124897 
-3.290483 7.667465 36.100780 0.245222 0.953130 0.177230 
-3.273587 7.665887 36.012531 0.141145 0.927670 0.345696 
-3.217420 7.692970 35.968681 0.194870 0.876510 0.440178 
-3.173185 7.711343 35.911331 0.208108 0.941328 0.265694 
-3.156636 7.709504 35.822620 0.593820 0.804009 -0.030764 
-3.152990 7.698238 35.719261 0.425884 0.903843 0.041130 
-3.133905 7.698240 35.633339 0.544674 0.837877 0.035957 
-3.117803 7.696059 35.544010 0.199661 0.945746 0.256320 
-3.069286 7.717549 35.491428 0.340138 0.921418 0.187868 
-3.059414 7.710811 35.394970 0.210571 0.969268 0.127198 
-3.027346 7.720282 35.323689 0.220300 0.958654 0.180141 
-2.994258 7.730496 35.253540 -0.002118 0.965407 0.260738 
-2.952580 7.746985 35.193150 0.155107 0.941549 0.299043 
-2.907484 7.765970 35.136631 0.147036 0.956257 0.252888 
-2.891304 7.763823 35.047199 0.481643 0.876298 0.011043 
-2.874285 7.762284 34.958691 0.326211 0.945269 -0.007301 
-2.876524 7.746664 34.848202 0.530294 0.844447 -0.075483 
-2.864275 7.741628 34.754169 0.296619 0.925330 0.236179 
-2.821285 7.759062 34.695160 0.383957 0.895147 0.226469 
-2.799829 7.760750 34.611568 0.182116 0.978317 0.098641 
-2.779541 7.761580 34.526619 0.254715 0.967016 0.000550 
-2.768512 7.755634 34.431061 0.033800 0.991211 0.127900 
-2.726213 7.772554 34.371189 0.091003 0.967496 0.235947 
-2.687376 7.786942 34.307350 0.072504 0.960070 0.270203 
-2.653767 7.797503 34.237530 0.414699 0.905045 0.094439 
-2.642535 7.791690 34.142071 0.415475 0.909279 -0.024339 
-2.642723 7.777517 34.033501 0.599999 0.792689 -0.107911 
-2.640124 7.765376 33.928070 0.367401 0.875779 0.313094 
-2.581322 7.794360 33.887001 0.357187 0.861140 0.361740 
-2.565107 7.792175 33.797112 0.275727 0.941762 0.192506 
-2.524120 7.808119 33.735611 0.304174 0.950884 0.057428 
-2.536422 7.785051 33.612919 0.202996 0.972186 0.116820 
-2.483200 7.809947 33.565418 0.159768 0.962379 0.219773 
-2.464737 7.809392 33.477982 0.204256 0.930420 0.304298 
-2.410774 7.834829 33.431320 0.252697 0.928198 0.273119 
-2.390592 7.835528 33.345810 0.299254 0.945466 0.128611 
-2.368756 7.837433 33.262169 0.550276 0.833932 -0.041884 
-2.389009 7.808505 33.130051 0.497325 0.849177 -0.177670 
-8.067678 6.770656 51.322880 0.041157 0.946730 0.319389 
-8.022049 6.790360 51.269730 0.185284 0.975292 0.120312 
-8.027159 6.773696 51.164490 0.336429 0.941695 0.005041 
-7.995418 6.783440 51.097038 0.332865 0.942969 0.003337 
-8.006171 6.762719 50.985909 0.511068 0.858654 0.039013 
-7.975252 6.771868 50.917568 0.384283 0.896612 0.220033 
-7.957679 6.771446 50.835480 0.408063 0.805954 0.428863 
-7.895120 6.803279 50.799660 0.361908 0.848659 0.385747 
-7.889232 6.794471 50.705509 0.287804 0.926637 0.241894 
-7.839974 6.816765 50.655991 0.354325 0.924008 0.143743 
-7.844875 6.800212 50.550659 0.247738 0.958987 0.137732 
-7.799976 6.819376 50.496620 0.258697 0.949534 0.177372 
-7.786163 6.816238 50.410511 0.129333 0.960668 0.245745 
-7.736458 6.838849 50.361420 0.284587 0.931323 0.227264 
-7.715858 6.840575 50.282269 0.321379 0.938341 0.127399 
-7.701780 6.837618 50.196362 0.557659 0.830054 0.005195 
-7.689681 6.833236 50.108372 0.335152 0.930768 0.146097 
-7.660231 6.841303 50.038288 0.436715 0.886293 0.154161 
-7.636281 6.845420 49.962502 0.276761 0.949230 0.149553 
-7.616594 6.846474 49.882271 0.269735 0.955510 0.119343 
-7.584967 6.856097 49.814381 0.169605 0.980289 0.101334 
-7.574262 6.850696 49.724800 0.239613 0.957632 0.159773 
-7.527482 6.871195 49.672581 0.161997 0.953654 0.253578 
-7.513256 6.868315 49.586590 0.221302 0.909286 0.352456 
-7.455945 6.896376 49.545280 0.294511 0.913809 0.279673 
-7.451289 6.886616 49.449310 0.276794 0.948492 0.154103 
-7.414716 6.899779 49.386459 0.432723 0.900016 0.052174 
-7.422270 6.881238 49.277729 0.368776 0.916202 0.156776 
-7.375031 6.902060 49.225922 0.387133 0.909646 0.150575 
-7.375889 6.888321 49.124081 0.372179 0.914909 0.156281 
-7.335329 6.904339 49.065289 0.367229 0.920422 0.134041 
-7.330314 6.894811 48.969479 0.275775 0.950398 0.143848 
-7.292405 6.908920 48.907909 0.261663 0.945915 0.191773 
-7.268755 6.912778 48.831459 0.161354 0.960047 0.228636 
-7.232212 6.925903 48.768429 0.230140 0.926261 0.298457 
-7.187217 6.945102 48.714211 0.168746 0.969562 0.177410 
-7.185074 6.933489 48.615250 0.443817 0.887697 -0.122558 
-7.186968 6.918968 48.512032 0.251780 0.967760 -0.006913 
-7.168285 6.919239 48.430260 0.421536 0.906288 -0.030804 
-7.163915 6.909212 48.333500 0.193991 0.967050 0.164871 
-7.117526 6.929403 48.280651 0.237105 0.960499 0.145678 
-7.103894 6.926030 48.193520 0.109220 0.986953 0.118300 
-7.072505 6.935427 48.124939 0.156765 0.975416 0.154881 
-7.040586 6.945204 48.056900 0.091282 0.961842 0.257929 
-7.003659 6.958583 47.994099 0.178219 0.881885 0.436482 
-6.947702 6.985655 47.951241 0.306333 0.895480 0.322919 
-6.941732 6.976753 47.855949 0.327583 0.934533 0.139059 
-6.899889 6.993666 47.798271 0.306341 0.951368 0.032482 
-6.914811 6.969716 47.680969 0.396897 0.916484 -0.050296 
-6.890727 6.973838 47.604591 0.232203 0.968584 0.089033 
-6.877020 6.970487 47.517281 0.236555 0.946697 0.218646 
-6.822323 6.996646 47.473042 0.175343 0.961353 0.212261 
-6.822848 6.983040 47.370701 0.250011 0.958895 0.134222 
-6.776014 7.003535 47.318180 0.236279 0.959666 0.152358 
-6.772159 6.993074 47.220379 0.231045 0.947129 0.222631 
-6.718360 7.018583 47.175171 0.311051 0.914317 0.259369 
-6.708269 7.012607 47.083889 0.429332 0.863444 0.264837 
-6.664203 7.031103 47.028400 0.512404 0.833540 0.206527 
-6.666086 7.016492 46.924419 0.348055 0.936102 0.050706 
-6.639729 7.022223 46.850201 0.397981 0.917235 0.017083 
-6.642180 7.007192 46.745529 0.263238 0.955700 0.131693 
-6.595516 7.027552 46.692719 0.180345 0.954403 0.237888 
-6.571684 7.031455 46.615768 0.066425 0.951663 0.299877 
-6.516804 7.057735 46.571640 0.172896 0.932010 0.318534 
-6.485543 7.066990 46.502522 0.183012 0.968302 0.169991 
-6.470504 7.064547 46.416199 0.387079 0.906691 0.167573 
-6.432210 7.078868 46.354481 0.372125 0.911905 0.173069 
-6.428685 7.068115 46.255909 0.519617 0.844686 0.128468 
-6.394619 7.079381 46.189671 0.426056 0.888667 0.169547 
-6.385644 7.072549 46.096802 0.382448 0.915007 0.128439 
-6.345296 7.088344 46.037189 0.227567 0.962456 0.147955 
-6.341425 7.077822 45.938839 0.407089 0.912178 -0.047017 
-6.329341 7.073219 45.849159 0.178284 0.979643 0.092278 
-6.303780 7.078337 45.773781 0.245448 0.947335 0.205700 
-6.263653 7.093962 45.713871 0.245275 0.943248 0.223883 
-6.247128 7.092553 45.628830 0.322222 0.901477 0.288987 
-6.197642 7.114931 45.578861 0.386363 0.893516 0.228806 
-6.197618 7.101605 45.476200 0.538821 0.800871 0.261301 
-6.148373 7.123806 45.425949 0.577586 0.759346 0.299649 
-6.145318 7.112660 45.326439 0.441626 0.810964 0.383802 
-6.083691 7.143798 45.289379 0.383161 0.867206 0.318027 
-6.086156 7.128658 45.183922 0.180034 0.977783 0.107371 
-6.040945 7.147942 45.129330 0.222938 0.973088 0.058298 
-6.044637 7.131906 45.022480 0.151482 0.985649 0.074492 
-6.007281 7.145511 44.959450 0.211074 0.966698 0.144719 
-5.986967 7.146805 44.878189 0.138976 0.961383 0.237546 
-5.944213 7.164307 44.820919 0.381731 0.917845 0.108822 
-5.943188 7.151659 44.718960 0.425354 0.902526 0.067240 
-5.922268 7.153380 44.638260 0.635449 0.772107 -0.007403 
-5.923520 7.139077 44.533779 0.511278 0.816587 0.267917 
-5.873195 7.162041 44.484550 0.422120 0.837729 0.346447 
-5.853196 7.163086 44.402779 0.267184 0.922502 0.278573 
-5.808629 7.181887 44.347359 0.268679 0.944091 0.191060 
-5.795834 7.177720 44.257820 0.122533 0.986760 0.106257 
-5.766046 7.185833 44.186489 0.274429 0.959433 0.064633 
-5.751649 7.182815 44.098598 0.095763 0.973657 0.206933 
-5.705585 7.202692 44.044739 0.196574 0.938534 0.283748 
-5.670210 7.214839 43.979370 0.372934 0.921389 0.109377 
-5.672156 7.199992 43.873810 0.609598 0.792046 -0.032461 
-5.659533 7.195676 43.783890 0.452620 0.872075 0.186064 
-5.628890 7.204391 43.713360 0.391197 0.868412 0.304674 
-5.581588 7.225156 43.660759 0.229283 0.938642 0.257645 
-5.572608 7.218194 43.566830 0.328238 0.940193 0.091094 
-5.534838 7.232059 43.503929 0.144807 0.983987 0.103925 
-5.532759 7.220095 43.402470 0.285059 0.958469 0.008859 
-5.505280 7.226507 43.328411 0.111231 0.980242 0.163565 
-5.479290 7.231839 43.252720 0.175058 0.920994 0.348030 
-5.417350 7.263191 43.215889 0.220367 0.927555 0.301794 
-5.410527 7.254644 43.119431 0.475148 0.876923 0.072391 
-5.384244 7.260181 43.043999 0.467245 0.883700 0.027511 
-5.396789 7.237600 42.926491 0.593062 0.804814 0.023501 
-5.367013 7.245657 42.854778 0.429722 0.873050 0.230482 
-5.346124 7.247277 42.773411 0.411017 0.811546 0.415280 
-5.284956 7.278067 42.735699 0.208093 0.892629 0.399888 
-5.265813 7.278417 42.652401 0.197526 0.960890 0.194096 
-5.224536 7.294798 42.593109 0.252529 0.964101 0.082086 
-5.230011 7.277306 42.483021 0.168772 0.981456 0.090890 
-5.179489 7.300381 42.433731 0.242152 0.965199 0.098764 
-5.185947 7.282166 42.322491 0.366716 0.920180 0.137069 
-5.141008 7.301192 42.267109 0.375869 0.915428 0.143924 
-5.146362 7.283767 42.156979 0.402480 0.904077 0.143715 
-5.103408 7.301350 42.099400 0.392323 0.906742 0.154599 
-5.102789 7.288242 41.995689 0.347714 0.870415 0.348529 
-5.038871 7.321021 41.960930 0.220391 0.869378 0.442278 
-5.011556 7.327262 41.886261 0.110096 0.943659 0.312067 
-4.958754 7.351982 41.839390 0.252447 0.954506 0.158710 
-4.955531 7.340747 41.738400 0.108638 0.987434 0.114771 
-4.912118 7.358655 41.681252 0.327369 0.942288 0.070169 
-4.909130 7.347241 41.579929 0.234445 0.965060 0.117026 
-4.874637 7.358675 41.513000 0.437368 0.896412 0.071797 
-4.869093 7.349105 41.414391 0.266975 0.959680 0.087974 
-4.840827 7.356015 41.340611 0.435537 0.899364 -0.038120 
-4.857504 7.330311 41.217590 0.450465 0.892390 -0.026863 
-4.832122 7.335120 41.140579 0.381429 0.918672 0.102736 
-4.816871 7.332573 41.052441 0.211223 0.886513 0.411678 
-4.744718 7.371324 41.026661 0.018682 0.843903 0.536171 
-4.693254 7.395059 40.978199 0.035144 0.932812 0.358645 
-4.663163 7.403280 40.906300 0.285032 0.936603 0.203791 
-4.627780 7.415339 40.840179 0.291323 0.949825 0.113858 
-4.625170 7.403601 40.738049 0.555486 0.824866 -0.105035 
-4.623061 7.391492 40.635311 0.371915 0.927716 -0.031973 
-4.616253 7.382790 40.537701 0.555881 0.817142 -0.152560 
-4.630754 7.358604 40.416599 0.394622 0.917845 0.042813 
-4.594607 7.371201 40.351181 0.389383 0.911491 0.132537 
-4.585971 7.363810 40.255451 0.277504 0.873936 0.399032 
-4.519730 7.398266 40.223141 0.120968 0.820426 0.558809 
-4.472519 7.418897 40.169880 0.082893 0.905576 0.416006 
-4.430195 7.435978 40.111229 0.271374 0.917203 0.291710 
-4.395681 7.447381 40.043961 0.321416 0.935975 0.143678 
-4.389913 7.437890 39.944931 0.479231 0.877359 0.024067 
-4.364392 7.442751 39.867680 0.435545 0.898695 0.051462 
-4.365875 7.427978 39.760559 0.621581 0.773559 -0.123466 
-4.367973 7.412751 39.652710 0.361979 0.928731 0.080190 
-4.336716 7.421770 39.581699 0.396249 0.913578 0.091445 
-4.329315 7.413439 39.484261 0.178929 0.923258 0.339969 
-4.264993 7.446498 39.449810 0.125942 0.856427 0.500671 
-4.214240 7.469691 39.400349 0.098416 0.903786 0.416515 
-4.179575 7.481182 39.333061 0.298733 0.907458 0.295430 
-4.138710 7.497181 39.272629 0.361486 0.918900 0.157960 
-4.142000 7.481056 39.163200 0.582827 0.812507 -0.012062 
-4.118004 7.484776 39.084011 0.417112 0.897337 0.144233 
-4.104471 7.480880 38.993172 0.422598 0.876904 0.229018 
-4.052519 7.504938 38.944981 0.286616 0.927825 0.238731 
-4.051461 7.491954 38.840210 0.421074 0.905604 0.050767 
-4.018758 7.502000 38.770592 0.238832 0.962781 0.126536 
-4.011869 7.493250 38.672230 0.309911 0.930096 0.197172 
-3.958096 7.518629 38.626019 0.152507 0.934455 0.321769 
-3.938606 7.519047 38.541630 0.343081 0.895379 0.283887 
-3.888525 7.541737 38.491299 0.244712 0.940130 0.237215 
-3.885569 7.530107 38.388432 0.348871 0.934149 0.075195 
-3.848706 7.543168 38.323330 0.318228 0.946548 0.052712 
-3.859772 7.521316 38.204731 0.547682 0.835938 0.035401 
-3.828681 7.530164 38.133141 0.473301 0.860764 0.187275 
-3.813999 7.527056 38.043190 0.545964 0.812026 0.206246 
-3.772382 7.543569 37.983318 0.305303 0.918993 0.249482 
-3.760549 7.538378 37.890129 0.387565 0.907257 0.163331 
-3.714767 7.557922 37.834888 0.156741 0.950611 0.267903 
-3.695247 7.558325 37.750240 0.232520 0.914537 0.330993 
-3.638009 7.586217 37.707809 0.221422 0.936790 0.270918 
-3.632864 7.576137 37.607010 0.369119 0.923502 0.104383 
-3.592931 7.591412 37.545170 0.430226 0.901224 0.051975 
-3.613045 7.562905 37.415970 0.602067 0.796019 0.062209 
-3.575069 7.576746 37.351879 0.389811 0.865235 0.315304 
-3.549345 7.581652 37.274021 0.315145 0.883703 0.346052 
-3.494840 7.607546 37.228470 0.210651 0.953104 0.217299 
-3.497938 7.591424 37.118191 0.325795 0.945079 -0.026124 
-3.473730 7.595214 37.038551 0.176831 0.982412 0.059980 
-3.462487 7.589543 36.944302 0.209015 0.957342 0.199524 
-3.408758 7.614865 36.897831 0.153266 0.960954 0.230386 
-3.399839 7.607490 36.800900 0.372648 0.917355 0.139980 
-3.358462 7.623797 36.740509 0.332180 0.934769 0.125949 
-3.361087 7.607988 36.630501 0.518300 0.850584 0.088727 
-3.323216 7.621730 36.566101 0.243779 0.932732 0.265675 
-3.300189 7.624636 36.484951 0.165078 0.922606 0.348636 
-3.231934 7.660557 36.454830 0.209860 0.946014 0.247015 
-3.243651 7.638090 36.334400 0.321834 0.943350 -0.080711 
-3.223741 7.638710 36.249649 0.182638 0.982958 0.020914 
-3.215172 7.631043 36.152039 0.307027 0.945650 0.107146 
-3.174814 7.646588 36.090340 0.149582 0.955469 0.254372 
-3.149225 7.651344 36.011921 0.254271 0.885545 0.388789 
-3.087437 7.682540 35.974468 0.360339 0.885060 0.294660 
-3.097582 7.661187 35.855541 0.524943 0.850883 0.020795 
-3.064351 7.671517 35.785709 0.362402 0.930015 0.061135 
-3.073302 7.651022 35.668030 0.475647 0.876239 0.077228 
-3.031452 7.667644 35.607910 0.246338 0.925989 0.286116 
-3.008850 7.670197 35.525951 0.382099 0.883592 0.270676 
-2.959389 7.692379 35.474449 0.151090 0.950461 0.271653 
-2.944685 7.689154 35.383469 0.149972 0.955269 0.254893 
-2.880756 7.721910 35.348400 0.302325 0.912546 0.275427 
-2.882618 7.706567 35.238529 0.302485 0.912047 0.276898 
-2.817332 7.740316 35.205009 0.406657 0.859448 0.309806 
-2.821019 7.723629 35.092979 0.512445 0.855529 0.073960 
-2.787919 7.733839 35.022800 0.378110 0.923285 0.067652 
-2.795939 7.713969 34.905739 0.393677 0.916302 -0.073547 
-2.780963 7.710913 34.814831 0.212197 0.970618 0.113463 
-2.752375 7.717812 34.739422 0.200780 0.940744 0.273290 
-2.699501 7.742476 34.691700 0.160865 0.957607 0.238981 
-2.685879 7.738419 34.599159 0.204953 0.969439 0.134845 
-2.642462 7.756161 34.540630 0.195375 0.973524 0.118654 
-2.643241 7.741557 34.431568 0.248413 0.956254 0.154498 
-2.591091 7.765687 34.382980 0.360830 0.906891 0.217602 
-2.587582 7.754211 34.278751 0.497855 0.863392 0.081821 
-2.556833 7.762671 34.205650 0.379111 0.924986 0.025991 
-2.570801 7.738389 34.081310 0.520728 0.840039 -0.152240 
-2.567660 7.726624 33.976509 0.255300 0.943509 0.211218 
-2.520610 7.747009 33.921989 0.274234 0.901077 0.335941 
-2.482872 7.760574 33.856789 0.136911 0.942641 0.304439 
-2.446823 7.772900 33.789639 0.282883 0.944454 0.167281 
-2.419813 7.778604 33.712101 0.130238 0.984332 0.118861 
-2.401697 7.777787 33.624321 0.335703 0.936754 0.098968 
-2.372351 7.785195 33.549412 0.205585 0.947680 0.244208 
-2.339447 7.795208 33.478569 0.404713 0.883360 0.236394 
-2.308385 7.803868 33.405590 0.331977 0.933701 0.134143 
-2.302424 7.794128 33.303699 0.489172 0.866989 -0.095081 
-2.300327 7.781551 33.197319 0.346306 0.934548 -0.081807 
-7.985164 6.741042 51.378361 0.034514 0.905089 0.423819 
-7.936062 6.763239 51.328789 0.336401 0.927909 0.160682 
-7.936160 6.750149 51.228710 0.277078 0.960765 -0.012578 
-7.921689 6.747502 51.143551 0.472437 0.872207 -0.126724 
-7.938178 6.722643 51.026539 0.351759 0.934600 0.052798 
-7.897554 6.738750 50.968189 0.284501 0.951268 0.118948 
-7.896921 6.726162 50.868690 0.263496 0.910489 0.318716 
-7.833954 6.758296 50.833309 0.203163 0.893785 0.399842 
-7.800571 6.769203 50.767471 0.149028 0.950065 0.274166 
-7.770418 6.777790 50.698299 0.331638 0.928957 0.164482 
-7.742060 6.785087 50.627251 0.185029 0.969872 0.158471 
-7.722719 6.785908 50.546890 0.243307 0.947370 0.208067 
-7.675383 6.806824 50.495392 0.250452 0.946803 0.202083 
-7.673488 6.795115 50.396980 0.402760 0.903583 0.146023 
-7.630267 6.813073 50.341209 0.283068 0.947150 0.150931 
-7.632370 6.798485 50.238590 0.419472 0.906944 0.038666 
-7.599942 6.808688 50.171631 0.302639 0.947900 0.099476 
-7.599393 6.795994 50.071678 0.427301 0.890970 0.153578 
-7.553986 6.815514 50.018101 0.224279 0.939092 0.260393 
-7.537946 6.813939 49.934120 0.292174 0.938485 0.184066 
-7.499124 6.828726 49.873699 0.319949 0.942052 0.100848 
-7.506794 6.810109 49.765091 0.291523 0.936833 0.193284 
-7.450884 6.837171 49.722351 0.256660 0.925528 0.278431 
-7.435507 6.835105 49.637569 0.197235 0.925107 0.324463 
-7.379411 6.862300 49.595032 0.243587 0.901323 0.358164 
-7.352028 6.868859 49.522671 0.254888 0.955153 0.150711 
-7.335621 6.867526 49.438900 0.407515 0.913184 -0.005066 
-7.327398 6.860305 49.346581 0.216810 0.974485 0.058077 
-7.307149 6.861726 49.266731 0.360233 0.930675 0.063843 
-7.286014 6.863780 49.187778 0.198249 0.969336 0.145207 
-7.259074 6.870005 49.114841 0.320281 0.941089 0.108495 
-7.238774 6.871452 49.034969 0.179054 0.975069 0.131075 
-7.213562 6.876429 48.960190 0.341618 0.928558 0.145178 
-7.186049 6.883058 48.887779 0.329296 0.927562 0.176618 
-7.167964 6.882903 48.805519 0.294626 0.878533 0.376000 
-7.106027 6.914291 48.768990 0.380309 0.874548 0.300883 
-7.111298 6.897326 48.662312 0.396157 0.917291 0.040469 
-7.075313 6.910041 48.598671 0.311890 0.949670 0.029193 
-7.091977 6.884868 48.480000 0.329592 0.944122 -0.001335 
-7.051567 6.900761 48.420929 0.160253 0.976871 0.141571 
-7.043395 6.893450 48.328140 0.236005 0.959217 0.155577 
-6.992518 6.916873 48.279999 0.129231 0.974209 0.184976 
-6.986906 6.907712 48.184471 0.314873 0.946844 0.065895 
-6.957588 6.915612 48.113731 0.325847 0.931306 0.162767 
-6.940119 6.914979 48.030548 0.413917 0.810232 0.414967 
-6.881064 6.944287 47.990959 0.288933 0.795309 0.532917 
-6.846519 6.955946 47.925659 0.304962 0.915239 0.263318 
-6.823674 6.959178 47.848061 0.463811 0.885872 -0.010477 
-6.832716 6.939438 47.736950 0.184440 0.982212 0.035241 
-6.791521 6.955880 47.678570 0.263283 0.964718 -0.001182 
-6.802248 6.934914 47.565590 0.182019 0.966074 0.183223 
-6.740862 6.965898 47.528412 0.226354 0.955218 0.190586 
-6.732740 6.958503 47.435188 0.172319 0.976561 0.128975 
-6.697547 6.970613 47.370430 0.311291 0.947240 0.076380 
-6.690711 6.962283 47.275791 0.266724 0.952203 0.148887 
-6.656068 6.973991 47.210419 0.502904 0.858498 0.100342 
-6.653434 6.962624 47.111271 0.423519 0.872007 0.245428 
-6.608217 6.981950 47.057011 0.464695 0.841174 0.276560 
-6.584520 6.985759 46.980030 0.323772 0.928944 0.179544 
-6.561607 6.989001 46.902199 0.443024 0.894876 0.054093 
-6.549229 6.984643 46.813210 0.186569 0.973396 0.133012 
-6.519649 6.992685 46.742371 0.268631 0.939747 0.211455 
-6.484078 7.005046 46.677849 0.206370 0.935685 0.286191 
-6.455985 7.012013 46.605400 0.330671 0.872227 0.360385 
-6.404789 7.035642 46.557400 0.335216 0.910550 0.241926 
-6.407512 7.020372 46.452278 0.433959 0.889011 0.146078 
-6.367912 7.035633 46.391960 0.456296 0.877204 0.149356 
-6.366305 7.023478 46.291359 0.561310 0.809935 0.170107 
-6.325756 7.039419 46.232010 0.456498 0.853972 0.249682 
-6.318262 7.031502 46.137569 0.344792 0.905431 0.247616 
-6.269060 7.053685 46.087391 0.307849 0.928931 0.205707 
-6.268165 7.040998 45.985882 0.236651 0.966488 0.099486 
-6.221225 7.061544 45.933270 0.194282 0.977796 0.078550 
-6.228880 7.042675 45.822590 0.282170 0.955187 0.089426 
-6.187353 7.059310 45.764191 0.267274 0.949396 0.164963 
-6.174292 7.055388 45.675480 0.310195 0.923074 0.227407 
-6.132710 7.072061 45.617119 0.447397 0.885795 0.123305 
-6.140709 7.052920 45.505909 0.478561 0.863895 0.157050 
-6.103519 7.066415 45.442822 0.488026 0.841047 0.233391 
-6.082437 7.068272 45.362530 0.267928 0.859571 0.435147 
-6.021563 7.098874 45.324692 0.131745 0.860280 0.492506 
-5.976350 7.118163 45.270142 0.135702 0.963045 0.232656 
-5.960879 7.115959 45.183811 0.266542 0.959764 0.088364 
-5.929029 7.125587 45.114960 0.138436 0.986919 0.082621 
-5.921071 7.117947 45.020538 0.294635 0.952588 0.075934 
-5.886633 7.129440 44.954411 0.273932 0.949532 0.152806 
-5.875054 7.124408 44.863800 0.536246 0.843854 0.018744 
-5.857987 7.123339 44.779030 0.379125 0.924497 0.039628 
-5.852467 7.113916 44.681862 0.553664 0.826657 -0.100467 
-5.854034 7.099363 44.577042 0.337712 0.925202 0.173065 
-5.812555 7.115934 44.518341 0.295666 0.891023 0.344470 
-5.773135 7.131014 44.457420 0.126250 0.926233 0.355181 
-5.734191 7.145750 44.395981 0.128839 0.935790 0.328172 
-5.683074 7.169290 44.347610 0.166576 0.970958 0.171737 
-5.685018 7.154444 44.242229 0.272687 0.960608 0.053610 
-5.645630 7.169495 44.181221 0.248843 0.959711 0.130506 
-5.638959 7.160872 44.085018 0.465247 0.872913 0.146859 
-5.604651 7.172243 44.018520 0.488017 0.867920 0.092494 
-5.612308 7.153241 43.906818 0.477751 0.876197 0.063504 
-5.574140 7.167399 43.844429 0.305231 0.939036 0.158256 
-5.570019 7.156912 43.745331 0.363093 0.875392 0.319145 
-5.507288 7.188848 43.709381 0.205378 0.916191 0.344113 
-5.498501 7.181731 43.615250 0.207655 0.954004 0.216231 
-5.444050 7.207672 43.570370 0.214270 0.961301 0.173174 
-5.443003 7.194942 43.467831 0.196651 0.977570 0.075397 
-5.403495 7.210060 43.406792 0.241415 0.967446 0.075942 
-5.403503 7.196557 43.303028 0.249444 0.935488 0.250281 
-5.347260 7.223792 43.260052 0.396924 0.887017 0.235908 
-5.348685 7.209253 43.154678 0.461943 0.877741 0.127197 
-5.310344 7.223517 43.092312 0.489057 0.870370 0.057257 
-5.327839 7.197323 42.969460 0.480163 0.876661 0.030151 
-5.294077 7.208264 42.902069 0.355900 0.920180 0.163107 
-5.283519 7.202386 42.809521 0.256722 0.881166 0.397039 
-5.213060 7.239917 42.781898 0.153403 0.867348 0.473471 
-5.184512 7.247074 42.708820 0.197236 0.939658 0.279538 
-5.145139 7.262074 42.647480 0.329794 0.930731 0.158039 
-5.130688 7.259006 42.559059 0.275253 0.956052 0.101000 
-5.108530 7.261522 42.478970 0.512679 0.858580 -0.000523 
-5.107303 7.248857 42.376099 0.353997 0.925299 0.136046 
-5.070573 7.261931 42.311798 0.394301 0.909047 0.134762 
-5.062643 7.254117 42.216141 0.283745 0.951562 0.118395 
-5.030859 7.263598 42.146420 0.381571 0.921179 0.076372 
-5.025845 7.253660 42.047520 0.187355 0.945346 0.266870 
-4.969030 7.281295 42.005032 0.122810 0.880279 0.458287 
-4.919579 7.303589 41.954521 0.128723 0.918162 0.374712 
-4.890768 7.310907 41.881500 0.319680 0.913018 0.253383 
-4.847593 7.328645 41.824131 0.278437 0.948040 0.153927 
-4.853382 7.310849 41.713280 0.518028 0.854503 0.038362 
-4.818063 7.322881 41.647289 0.366028 0.919926 0.140568 
-4.815001 7.311497 41.546028 0.547025 0.829417 0.113279 
-4.775451 7.326595 41.484619 0.327281 0.919081 0.219495 
-4.766057 7.319799 41.390209 0.509413 0.857908 -0.067022 
-4.764293 7.307456 41.287399 0.234415 0.972049 -0.013045 
-4.748049 7.305624 41.200409 0.313541 0.949418 0.017276 
-4.731175 7.304243 41.114059 0.098918 0.952013 0.289633 
-4.679571 7.328084 41.065769 0.051397 0.830869 0.554090 
-4.608366 7.366162 41.038990 0.207399 0.880434 0.426405 
-4.597010 7.360768 40.946541 0.452766 0.866296 0.211029 
-4.557004 7.376182 40.885521 0.483027 0.865205 0.134558 
-4.567891 7.354618 40.768570 0.594220 0.804017 0.021428 
-4.533243 7.366133 40.701611 0.416271 0.904717 0.090585 
-4.542835 7.345497 40.585979 0.571176 0.805431 -0.158239 
-4.541550 7.332757 40.482250 0.308000 0.951361 0.006991 
-4.524549 7.331435 40.395779 0.370247 0.927240 0.056065 
-4.503902 7.332759 40.313290 0.096603 0.949580 0.298272 
-4.452960 7.356105 40.264149 0.066975 0.860242 0.505468 
-4.388658 7.389164 40.229752 0.186235 0.889246 0.417801 
-4.370701 7.388527 40.144249 0.480952 0.828586 0.286582 
-4.325877 7.407423 40.088360 0.406234 0.888240 0.214482 
-4.330901 7.390065 39.977421 0.635897 0.771655 0.013533 
-4.307580 7.393317 39.897751 0.600731 0.796723 0.065985 
-4.305550 7.381077 39.794510 0.599227 0.800499 0.011334 
-4.281575 7.384796 39.715500 0.258328 0.952434 0.161665 
-4.260181 7.386634 39.633591 0.275145 0.948721 0.155642 
-4.222772 7.400123 39.569389 0.140397 0.968073 0.207661 
-4.204400 7.399755 39.484100 0.212728 0.896009 0.389762 
-4.134440 7.436929 39.455929 0.141923 0.914166 0.379683 
-4.120002 7.433694 39.366241 0.415948 0.866038 0.277428 
-4.073310 7.453934 39.312279 0.463587 0.870362 0.166005 
-4.086692 7.430438 39.191662 0.613701 0.787862 0.051431 
-4.053103 7.441133 39.123119 0.486253 0.853981 0.185133 
-4.043015 7.434713 39.028461 0.440805 0.831937 0.337004 
-3.989799 7.459696 38.981689 0.404349 0.860578 0.309689 
-3.986385 7.448408 38.879551 0.356241 0.914216 0.193137 
-3.938133 7.469773 38.827240 0.308993 0.935487 0.171429 
-3.939157 7.455244 38.720089 0.257645 0.938106 0.231467 
-3.882240 7.482918 38.677399 0.256865 0.929131 0.265963 
-3.873690 7.475353 38.580841 0.206643 0.928780 0.307679 
-3.808260 7.509230 38.547630 0.226685 0.944590 0.237410 
-3.803707 7.498746 38.446560 0.239736 0.966960 0.086691 
-3.771508 7.508405 38.376282 0.363187 0.931173 -0.031811 
-3.789067 7.481794 38.250439 0.447538 0.894033 -0.020344 
-3.761527 7.488049 38.174889 0.478561 0.874603 0.077780 
-3.755450 7.478654 38.075340 0.405722 0.864992 0.295260 
-3.699222 7.505818 38.031811 0.278862 0.910478 0.305393 
-3.692179 7.497119 37.933281 0.261128 0.934417 0.242235 
-3.638555 7.522383 37.886829 0.156419 0.949573 0.271744 
-3.620076 7.522016 37.801041 0.111633 0.942442 0.315185 
-3.558534 7.553054 37.763439 0.280771 0.938321 0.201794 
-3.558664 7.539108 37.656750 0.407971 0.911734 0.047960 
-3.535841 7.541900 37.575741 0.565886 0.821934 -0.064795 
-3.553061 7.515473 37.449791 0.505320 0.856802 0.102677 
-3.511608 7.531849 37.389610 0.312723 0.891988 0.326437 
-3.482824 7.538978 37.315201 0.164146 0.877855 0.449919 
-3.415738 7.574059 37.283798 0.225606 0.923157 0.311260 
-3.411771 7.563072 37.181469 0.161532 0.984524 0.067975 
-3.375081 7.575965 37.115891 0.244122 0.969629 0.014978 
-3.376628 7.560943 37.007278 0.186144 0.968173 0.167307 
-3.323837 7.585587 36.959782 0.317750 0.933222 0.167723 
-3.323521 7.571915 36.853180 0.354435 0.927079 0.122068 
-3.286511 7.585032 36.787880 0.431019 0.900767 0.053304 
-3.300406 7.560970 36.665180 0.349334 0.921431 0.170090 
-3.243218 7.588818 36.622589 0.229582 0.930921 0.284040 
-3.227230 7.586573 36.533508 0.161449 0.907517 0.387745 
-3.161388 7.620742 36.500679 0.345600 0.891174 0.293886 
-3.155877 7.610837 36.399719 0.229202 0.972248 0.046896 
-3.129931 7.615856 36.321812 0.348251 0.936268 -0.046082 
-3.138345 7.595765 36.205021 0.301117 0.947769 0.105176 
-3.093324 7.614716 36.148621 0.358754 0.917195 0.173349 
-3.086904 7.605454 36.048531 0.410863 0.831467 0.373970 
-3.027634 7.634818 36.008240 0.444571 0.831640 0.332763 
-3.028390 7.620301 35.899948 0.372303 0.919058 0.129317 
-2.988514 7.635484 35.837662 0.389858 0.919293 0.053954 
-3.003893 7.610265 35.712700 0.377811 0.919328 0.109976 
-2.957677 7.630079 35.657558 0.271450 0.935955 0.224284 
-2.946770 7.624069 35.562328 0.267683 0.896394 0.353304 
-2.877539 7.660713 35.533310 0.227470 0.909055 0.349109 
-2.871251 7.651318 35.432781 0.287090 0.926551 0.243071 
-2.826677 7.669926 35.375729 0.396617 0.892008 0.216833 
-2.811864 7.666759 35.284821 0.450578 0.846354 0.284014 
-2.771426 7.682337 35.223049 0.716988 0.654929 0.238739 
-2.760112 7.676602 35.128090 0.516325 0.803039 0.297553 
-2.713765 7.696501 35.073009 0.387145 0.889040 0.244389 
-2.708880 7.686052 34.970669 0.194455 0.979734 0.048050 
-2.677435 7.695039 34.898571 0.187866 0.981929 0.022825 
-2.675574 7.682367 34.792690 0.198175 0.962436 0.185588 
-2.622917 7.706877 34.744751 0.241404 0.949076 0.202433 
-2.612462 7.700487 34.648609 0.220984 0.954287 0.201250 
-2.565385 7.720910 34.594269 0.354669 0.927893 0.114999 
-2.565957 7.706436 34.485470 0.507721 0.856270 0.094977 
-2.537016 7.713572 34.410358 0.567295 0.807133 0.163440 
-2.522213 7.710348 34.319050 0.422284 0.872946 0.244218 
-2.478012 7.728656 34.261360 0.353907 0.926853 0.125277 
-2.493489 7.703241 34.135311 0.352903 0.933777 -0.059324 
-2.465598 7.709593 34.058880 0.167834 0.981703 0.089950 
-2.451328 7.705960 33.966820 0.229964 0.937614 0.260762 
-2.392387 7.735061 33.925949 0.164067 0.937209 0.307768 
-2.377070 7.732189 33.835041 0.262844 0.938737 0.222903 
-2.327091 7.754721 33.783878 0.307812 0.939655 0.149334 
-2.332131 7.736918 33.669529 0.444367 0.891502 0.088098 
-2.294521 7.750378 33.604130 0.359899 0.911013 0.201317 
-2.282047 7.745406 33.509811 0.432289 0.849565 0.302268 
-2.225976 7.772398 33.465611 0.236853 0.926451 0.292558 
-2.221619 7.761466 33.361900 0.408509 0.912549 -0.019350 
-2.202496 7.761357 33.275139 0.210422 0.974242 0.081087 
-7.904162 6.710384 51.432301 0.265952 0.889269 0.372117 
-7.874327 6.718759 51.362980 0.400687 0.870941 0.284450 
-7.837125 6.732418 51.301208 0.382821 0.917538 0.107573 
-7.847007 6.712282 51.191059 0.526530 0.835931 -0.154873 
-7.844603 6.700958 51.093479 0.176146 0.982029 0.067758 
-7.813900 6.709943 51.024948 0.260196 0.960651 0.097200 
-7.793518 6.711516 50.945789 0.143329 0.977367 0.155596 
-7.767766 6.716941 50.872131 0.227178 0.915254 0.332716 
-7.710650 6.744886 50.830750 0.208607 0.930120 0.302257 
-7.702103 6.737953 50.739330 0.362178 0.912958 0.187978 
-7.658111 6.756471 50.684422 0.334634 0.921411 0.197538 
-7.653744 6.746528 50.588631 0.442233 0.863624 0.242040 
-7.606735 6.767210 50.536812 0.403183 0.872945 0.274610 
-7.600494 6.758605 50.442902 0.329721 0.914699 0.233688 
-7.551703 6.780566 50.392891 0.396811 0.901312 0.173718 
-7.560571 6.761097 50.283298 0.311595 0.946479 0.084181 
-7.520298 6.776934 50.224461 0.311716 0.948724 0.052500 
-7.530614 6.756413 50.113289 0.249977 0.955340 0.157596 
-7.475526 6.782893 50.069752 0.208193 0.956371 0.204962 
-7.466445 6.776304 49.978569 0.212925 0.959184 0.186087 
-7.421186 6.795717 49.924839 0.300673 0.947439 0.109337 
-7.416482 6.785974 49.829071 0.224577 0.966823 0.121733 
-7.383653 6.796448 49.762421 0.376001 0.904590 0.200849 
-7.356684 6.802705 49.689690 0.280064 0.904296 0.322200 
-7.319097 6.816597 49.627949 0.433079 0.803331 0.408782 
-7.275898 6.834523 49.572029 0.388497 0.871510 0.299232 
-7.264462 6.829603 49.483101 0.389292 0.909688 0.144636 
-7.227439 6.843083 49.420738 0.269302 0.955945 0.116818 
-7.228224 6.829364 49.319038 0.340776 0.939027 0.045818 
-7.196242 6.839213 49.251389 0.239305 0.962869 0.124969 
-7.184902 6.834207 49.162239 0.278299 0.948724 0.149908 
-7.142724 6.851388 49.105171 0.294708 0.949476 0.107897 
-7.149325 6.833464 48.997250 0.455473 0.886387 0.082846 
-7.112583 6.846728 48.934479 0.362985 0.915043 0.175890 
-7.103209 6.840292 48.843151 0.472843 0.809044 0.349095 
-7.050862 6.864785 48.796631 0.539215 0.754245 0.374649 
-7.040337 6.859170 48.706440 0.377004 0.904297 0.200289 
-7.004617 6.871691 48.642540 0.402425 0.912281 0.076139 
-7.009353 6.855079 48.536339 0.222991 0.970950 0.086777 
-6.968731 6.871125 48.477520 0.232949 0.966468 0.108049 
-6.962309 6.862538 48.382919 0.150779 0.967440 0.203285 
-6.909302 6.887501 48.337029 0.268325 0.952450 0.144367 
-6.910873 6.873149 48.233990 0.361228 0.932014 0.029398 
-6.885697 6.878060 48.158932 0.473737 0.880614 0.009600 
-6.891405 6.860717 48.051460 0.481044 0.792134 0.375660 
-6.827295 6.893674 48.017181 0.245737 0.733924 0.633221 
-6.784168 6.911513 47.960892 0.310473 0.868593 0.386203 
-6.753402 6.920443 47.891621 0.291611 0.919498 0.263604 
-6.710282 6.938275 47.835320 0.172814 0.975644 0.135111 
-6.716876 6.920272 47.726749 0.316892 0.948048 -0.028010 
-6.685211 6.929843 47.658360 0.125217 0.986512 0.105423 
-6.673371 6.925118 47.569099 0.299868 0.943524 0.140857 
-6.629427 6.943536 47.513599 0.189602 0.966528 0.172845 
-6.621191 6.936206 47.420479 0.435601 0.900020 0.014661 
-6.600641 6.937750 47.340302 0.299773 0.951814 0.064703 
-6.593607 6.929543 47.245850 0.433988 0.900249 0.034741 
-6.567793 6.934877 47.171162 0.326252 0.936745 0.126760 
-6.554334 6.931295 47.083408 0.457302 0.856829 0.238159 
-6.509522 6.950328 47.028728 0.354550 0.901552 0.247990 
-6.501153 6.943069 46.935551 0.375651 0.904780 0.200648 
-6.450686 6.966178 46.886822 0.238699 0.947952 0.210738 
-6.449863 6.953465 46.785599 0.379514 0.910549 0.163919 
-6.405069 6.972480 46.730850 0.286450 0.923972 0.253421 
-6.392647 6.968129 46.641842 0.235393 0.919397 0.315118 
-6.335855 6.995800 46.599770 0.301613 0.929875 0.210620 
-6.331133 6.985886 46.502548 0.404840 0.908509 0.103519 
-6.301467 6.993972 46.431721 0.515435 0.856524 0.026354 
-6.315858 6.970246 46.314159 0.444142 0.873754 0.198220 
-6.264079 6.994295 46.266731 0.355317 0.887258 0.294149 
-6.244637 6.994990 46.184990 0.264890 0.907669 0.325531 
-6.194477 7.017868 46.135830 0.290706 0.904691 0.311487 
-6.171500 7.021111 46.057800 0.145839 0.969742 0.195786 
-6.139714 7.030716 45.989109 0.330229 0.941663 0.064954 
-6.130877 7.023739 45.896000 0.176543 0.982753 0.055039 
-6.108313 7.026674 45.817440 0.380546 0.924330 0.028259 
-6.096846 7.021587 45.727051 0.238611 0.958437 0.156409 
-6.062143 7.033288 45.661381 0.430363 0.900287 0.065350 
-6.056409 7.024050 45.564812 0.266043 0.960635 0.080010 
-6.029686 7.029977 45.490589 0.356469 0.926321 0.121896 
-6.009143 7.031435 45.409740 0.158207 0.919122 0.360813 
-5.952304 7.059129 45.367611 0.115993 0.828494 0.547853 
-5.894908 7.087226 45.326080 0.243414 0.897341 0.368143 
-5.880269 7.084409 45.238892 0.243258 0.949269 0.199283 
-5.836925 7.102345 45.182339 0.327273 0.940785 0.088410 
-5.849102 7.080127 45.066410 0.482148 0.874910 0.045463 
-5.815592 7.090947 44.999310 0.466318 0.877531 0.111742 
-5.818298 7.075567 44.893421 0.500458 0.859405 0.104715 
-5.779899 7.089917 44.831501 0.385437 0.916743 0.104982 
-5.788181 7.070492 44.719551 0.488255 0.871878 -0.037888 
-5.763373 7.075002 44.643021 0.208766 0.968606 0.134982 
-5.744600 7.075142 44.559990 0.232833 0.922208 0.308741 
-5.684836 7.104944 44.520920 0.134461 0.910042 0.392103 
-5.659765 7.109638 44.444611 0.110673 0.929707 0.351279 
-5.601853 7.138100 44.403561 0.237423 0.952970 0.188355 
-5.600327 7.125746 44.301910 0.277346 0.959526 0.048873 
-5.574089 7.131276 44.226799 0.441106 0.897337 0.014553 
-5.573819 7.118002 44.123718 0.389067 0.911361 0.134345 
-5.535018 7.132622 44.062069 0.425621 0.901068 0.083206 
-5.541208 7.114659 43.951950 0.329293 0.935812 0.125784 
-5.496801 7.133334 43.896290 0.379833 0.917066 0.121309 
-5.500293 7.117315 43.789009 0.233865 0.919339 0.316423 
-5.428671 7.155700 43.762661 0.193117 0.896815 0.398030 
-5.409115 7.156369 43.680168 0.226981 0.940344 0.253444 
-5.368016 7.172643 43.620911 0.357468 0.908163 0.217844 
-5.349317 7.172686 43.537441 0.260436 0.956909 0.128447 
-5.326534 7.175683 43.458359 0.445720 0.894947 0.020100 
-5.320551 7.166502 43.361092 0.337888 0.928041 0.156751 
-5.286920 7.177355 43.293671 0.474253 0.869308 0.139239 
-5.276660 7.171265 43.200958 0.362740 0.923715 0.123170 
-5.249879 7.177146 43.126091 0.522859 0.852353 -0.010629 
-5.257162 7.158329 43.014301 0.293887 0.951951 0.086141 
-5.216201 7.174484 42.954731 0.317781 0.940085 0.123514 
-5.206555 7.167930 42.861210 0.133693 0.937103 0.322435 
-5.145136 7.198919 42.823799 0.084500 0.899770 0.428104 
-5.103259 7.215735 42.765209 0.140866 0.952128 0.271310 
-5.078739 7.219961 42.687759 0.377843 0.916412 0.132002 
-5.053351 7.224814 42.611221 0.370585 0.925609 0.076913 
-5.047176 7.215724 42.513779 0.586341 0.809766 -0.022006 
-5.031396 7.213598 42.426739 0.392694 0.901633 0.181245 
-5.000695 7.222295 42.355900 0.507381 0.840909 0.188245 
-4.977440 7.225586 42.276939 0.275134 0.944550 0.179241 
-4.955473 7.227939 42.196541 0.346497 0.931783 0.108263 
-4.929580 7.233138 42.120399 0.186861 0.964903 0.184514 
-4.904523 7.237727 42.043331 0.193072 0.897919 0.395555 
-4.840706 7.270453 42.008511 0.241744 0.902050 0.357582 
-4.827577 7.266379 41.918381 0.338105 0.890324 0.304971 
-4.774881 7.291031 41.871429 0.424516 0.886913 0.182132 
-4.788108 7.267810 41.752460 0.559820 0.824691 0.080541 
-4.751657 7.280661 41.687729 0.543455 0.830072 0.125047 
-4.761349 7.259993 41.572521 0.546483 0.805303 0.229878 
-4.709513 7.284014 41.524570 0.438562 0.836285 0.329076 
-4.700412 7.276989 41.429840 0.423260 0.891410 0.161987 
-4.657265 7.294693 41.372360 0.285029 0.951100 0.119030 
-4.667986 7.273256 41.255852 0.298131 0.953856 0.035726 
-4.626664 7.289631 41.196320 0.127587 0.976293 0.174851 
-4.613624 7.285451 41.105770 0.160685 0.902810 0.398891 
-4.542037 7.323820 41.079430 0.252707 0.909759 0.329360 
-4.535716 7.314749 40.981461 0.406314 0.889462 0.209204 
-4.493089 7.332068 40.923328 0.525707 0.846296 0.086117 
-4.511931 7.304693 40.797642 0.530971 0.838607 0.121690 
-4.468478 7.322606 40.740372 0.527631 0.838737 0.134631 
-4.480367 7.300274 40.622219 0.503165 0.864190 0.000721 
-4.448647 7.309649 40.551991 0.258815 0.961227 0.095175 
-4.443346 7.299807 40.452660 0.210689 0.969917 0.121951 
-4.395755 7.320720 40.399872 0.092439 0.976856 0.192893 
-4.384040 7.315535 40.307541 0.160867 0.926639 0.339798 
-4.317905 7.349938 40.275181 0.214527 0.937762 0.273093 
-4.315244 7.338159 40.172810 0.324930 0.899215 0.292972 
-4.252789 7.369884 40.136391 0.359942 0.916847 0.172721 
-4.275460 7.339661 40.005981 0.534209 0.845341 0.004438 
-4.244318 7.348595 39.934952 0.521439 0.851799 0.050395 
-4.249980 7.330736 39.823219 0.440894 0.876694 0.192406 
-4.194965 7.357042 39.778542 0.253177 0.924618 0.284574 
-4.186040 7.349792 39.682861 0.224668 0.951509 0.210131 
-4.134827 7.373329 39.633961 0.173406 0.959476 0.222119 
-4.119536 7.370708 39.545269 0.066412 0.946459 0.315918 
-4.056249 7.403036 39.509739 0.297568 0.924163 0.239533 
-4.052341 7.392118 39.408390 0.331058 0.917577 0.220121 
-4.005747 7.412287 39.354340 0.494129 0.865424 0.082939 
-4.027750 7.382484 39.224159 0.456315 0.887165 0.068662 
-3.988374 7.397390 39.162048 0.400285 0.905529 0.140675 
-3.983965 7.386817 39.061089 0.337239 0.882320 0.328301 
-3.922046 7.418144 39.023998 0.307964 0.886026 0.346577 
-3.907870 7.414681 38.933842 0.248546 0.939988 0.233768 
-3.864415 7.432552 38.876221 0.325312 0.928456 0.179278 
-3.852495 7.427437 38.783482 0.165161 0.964474 0.206184 
-3.808280 7.445859 38.726681 0.229612 0.933112 0.276732 
-3.772899 7.457840 38.660019 0.186273 0.932589 0.309160 
-3.738101 7.469394 38.592701 0.366904 0.884563 0.287975 
-3.700248 7.483175 38.528782 0.272649 0.939616 0.206844 
-3.686404 7.479445 38.438061 0.533720 0.836463 -0.124389 
-3.708140 7.449760 38.307571 0.360410 0.928035 -0.094106 
-3.693352 7.446707 38.217800 0.396727 0.917497 -0.028410 
-3.687593 7.437062 38.117901 0.207089 0.936468 0.283092 
-3.624513 7.469230 38.082050 0.154548 0.934897 0.319504 
-3.601601 7.472093 38.001289 0.079092 0.960132 0.268125 
-3.550700 7.495376 37.951820 0.226775 0.928441 0.294229 
-3.519063 7.504601 37.880779 0.285516 0.920786 0.265770 
-3.491405 7.510920 37.805260 0.539160 0.831079 0.136431 
-3.474352 7.509495 37.717838 0.373255 0.924578 0.076400 
-3.461600 7.504926 37.625561 0.513917 0.848242 -0.127964 
-3.482199 7.476004 37.495819 0.315184 0.945732 0.079060 
-3.435548 7.496173 37.441490 0.223550 0.933713 0.279653 
-3.405900 7.503927 37.368061 0.075290 0.901893 0.425347 
-3.344275 7.535031 37.330551 0.078103 0.892553 0.444127 
-3.294558 7.557439 37.279671 0.244799 0.950796 0.189896 
-3.295635 7.542747 37.171650 0.492139 0.866975 -0.078446 
-3.285321 7.536368 37.076401 0.302627 0.946798 0.109505 
-3.259361 7.541416 36.998730 0.543600 0.834788 0.087341 
-3.244031 7.538693 36.909050 0.393995 0.901259 0.180280 
-3.212464 7.547830 36.837639 0.448528 0.889954 0.082490 
-3.210308 7.535471 36.733040 0.214031 0.968367 0.128286 
-3.172727 7.548997 36.668362 0.261463 0.936163 0.235022 
-3.140373 7.558702 36.597759 0.111921 0.947523 0.299455 
-3.103885 7.571425 36.531818 0.274630 0.904548 0.326145 
-3.052128 7.595309 36.483109 0.267152 0.943005 0.198422 
