23.471741 -0.475034 31.070610 0.245503 0.961182 0.125929 
23.496559 -0.474336 30.988991 0.066827 0.979759 0.188697 
23.537821 -0.458897 30.929430 0.306108 0.949312 0.071446 
23.542440 -0.476344 30.820560 0.348627 0.929973 0.116661 
23.582270 -0.462191 30.759041 0.509717 0.859297 0.042400 
23.570869 -0.494042 30.628490 0.418380 0.847514 0.326616 
23.632351 -0.460461 30.596100 0.350331 0.842808 0.408586 
23.648310 -0.467756 30.502340 0.303477 0.913836 0.269826 
23.698240 -0.444542 30.454370 0.233274 0.937094 0.259688 
23.714979 -0.451153 30.361601 0.108936 0.964447 0.240781 
23.774059 -0.419723 30.325970 0.153220 0.966049 0.208020 
23.785500 -0.431114 30.225960 0.278805 0.930417 0.237889 
23.836670 -0.406796 30.179630 0.316884 0.925533 0.207300 
23.841949 -0.423736 30.071220 0.474061 0.878612 0.057508 
23.877729 -0.413254 30.004049 0.284545 0.951209 0.119310 
23.883181 -0.430063 29.895760 0.522711 0.846112 0.104246 
23.918850 -0.419693 29.828381 0.260329 0.927121 0.269583 
23.950529 -0.412927 29.755550 0.337290 0.907176 0.251531 
23.994841 -0.394788 29.699860 0.173507 0.962004 0.210819 
24.011511 -0.401539 29.606621 0.413412 0.910498 -0.009126 
24.028210 -0.408255 29.513399 0.110358 0.984413 0.136936 
24.068041 -0.394166 29.451550 0.186569 0.963161 0.193685 
24.100710 -0.386529 29.379959 0.067541 0.960800 0.268889 
24.141649 -0.371441 29.319599 0.455023 0.882259 0.120718 
24.152241 -0.383696 29.217911 0.341753 0.936229 0.081731 
24.181179 -0.379430 29.141171 0.474706 0.880145 0.000414 
24.180611 -0.401753 29.024191 0.384859 0.903514 0.188537 
24.227390 -0.381424 28.971689 0.278948 0.916516 0.286681 
24.250231 -0.382676 28.886530 0.275155 0.885903 0.373450 
24.311331 -0.349449 28.853540 0.232036 0.935883 0.265108 
24.318609 -0.364728 28.747101 0.220329 0.972258 0.078550 
24.360241 -0.349059 28.687519 0.206784 0.974500 0.087121 
24.370710 -0.361482 28.585340 0.277484 0.945453 0.170651 
24.420340 -0.338603 28.536659 0.170854 0.958620 0.227721 
24.437000 -0.345456 28.442869 0.352095 0.931246 0.093862 
24.470860 -0.336808 28.372580 0.229272 0.968822 0.093908 
24.482180 -0.348496 28.271400 0.441051 0.896887 0.032665 
24.511209 -0.344216 28.194429 0.152547 0.964532 0.215425 
24.547060 -0.333782 28.126789 0.308614 0.924558 0.223495 
24.583151 -0.323142 28.059460 0.126398 0.966967 0.221356 
24.614040 -0.317192 27.984980 0.265460 0.960558 0.082821 
24.633631 -0.321452 27.894951 0.176834 0.980301 0.087979 
24.666321 -0.313891 27.822880 0.268306 0.961131 0.065111 
24.682570 -0.321188 27.728189 0.107217 0.972977 0.204498 
24.731791 -0.298708 27.678789 0.238650 0.952003 0.191668 
24.746559 -0.307347 27.582001 0.261848 0.960306 0.096162 
24.782400 -0.296964 27.514160 0.286874 0.957293 0.035975 
24.785339 -0.316308 27.400990 0.444664 0.893980 -0.055433 
24.808140 -0.317720 27.315121 0.172098 0.983251 0.059993 
24.826900 -0.322788 27.223650 0.350653 0.929424 0.114947 
24.866600 -0.308935 27.161020 0.062966 0.967206 0.246065 
24.899050 -0.301640 27.088369 0.264265 0.928144 0.262131 
24.945551 -0.281642 27.035101 0.127550 0.940487 0.314985 
24.975149 -0.276930 26.958481 0.459742 0.868110 0.187141 
25.005610 -0.271444 26.883020 0.230053 0.947256 0.223118 
25.035879 -0.266140 26.807270 0.485223 0.874370 0.006050 
25.037540 -0.286722 26.691910 0.252554 0.966979 0.034182 
25.073971 -0.275860 26.624611 0.262618 0.963608 0.049917 
25.084970 -0.288006 26.522079 0.252886 0.941436 0.223041 
25.132271 -0.267311 26.469801 0.307332 0.912867 0.268738 
25.155001 -0.268856 26.383450 0.266575 0.925554 0.268865 
25.202971 -0.247558 26.332069 0.208628 0.944798 0.252647 
25.224070 -0.250594 26.243401 0.283712 0.926510 0.247156 
25.273581 -0.227905 26.194139 0.273631 0.925545 0.261712 
25.289190 -0.235925 26.097780 0.438372 0.870995 0.221804 
25.332491 -0.218872 26.039860 0.425456 0.872600 0.239909 
25.342480 -0.231994 25.935610 0.476292 0.871254 0.118590 
25.380011 -0.220177 25.869619 0.191531 0.970295 0.147794 
25.396009 -0.227869 25.773661 0.385635 0.922406 -0.021291 
25.412720 -0.234936 25.678619 0.153114 0.978242 0.139994 
25.452459 -0.221128 25.615629 0.350341 0.927765 0.128502 
25.473850 -0.223959 25.527050 0.209186 0.956280 0.204377 
25.511311 -0.212221 25.460859 0.453284 0.888816 0.067384 
25.513840 -0.232177 25.345869 0.172397 0.969530 0.174043 
25.572081 -0.201601 25.308640 0.286705 0.942363 0.172489 
25.576691 -0.219690 25.196461 0.318179 0.925099 0.207255 
25.628531 -0.194924 25.150270 0.259749 0.934206 0.244518 
25.643110 -0.203973 25.051960 0.266320 0.959112 0.095803 
25.682810 -0.190230 24.988760 0.163901 0.984884 0.056040 
25.689320 -0.206634 24.879049 0.352482 0.935782 0.008312 
25.720730 -0.200430 24.804180 0.087719 0.975699 0.200788 
25.757509 -0.189351 24.736820 0.255054 0.936457 0.240824 
25.798830 -0.174156 24.675800 0.093078 0.967567 0.234842 
25.825159 -0.172578 24.593740 0.460873 0.887451 0.005192 
25.833250 -0.187582 24.486040 0.250328 0.959091 0.132213 
25.871691 -0.175018 24.420900 0.423920 0.896990 0.125302 
25.885559 -0.184784 24.321230 0.327289 0.919084 0.219470 
25.935160 -0.162086 24.271730 0.338674 0.930642 0.138585 
25.933680 -0.185830 24.150379 0.417974 0.907354 -0.044785 
25.957861 -0.186248 24.065069 0.185690 0.974679 0.124578 
25.988291 -0.180986 23.988541 0.247645 0.918107 0.309437 
26.035789 -0.160213 23.936029 0.112931 0.892193 0.437307 
26.079479 -0.142904 23.878139 0.250681 0.893178 0.373353 
26.123871 -0.124957 23.821230 0.334187 0.921542 0.197687 
26.130329 -0.141522 23.710800 0.516990 0.855763 0.019786 
26.155581 -0.141010 23.626810 0.375986 0.918394 0.123239 
26.177250 -0.143751 23.537750 0.579189 0.814757 0.026678 
26.193220 -0.151699 23.440580 0.336117 0.924930 0.177566 
26.232771 -0.138180 23.376720 0.330916 0.933478 0.138248 
26.247459 -0.147307 23.277660 0.162636 0.982344 0.092462 
26.286390 -0.134364 23.212879 0.209328 0.974200 0.084358 
26.299580 -0.144872 23.111610 0.301339 0.938011 0.171264 
26.343830 -0.127089 23.054319 0.154765 0.942461 0.296335 
26.373920 -0.122207 22.976940 0.332459 0.884605 0.327024 
26.421049 -0.101804 22.923710 0.386362 0.886176 0.255767 
26.434509 -0.112102 22.822670 0.621561 0.782273 0.041361 
26.456490 -0.114628 22.733690 0.379545 0.905234 0.191044 
22.521549 -0.671020 33.759918 -0.029307 0.910230 0.413066 
22.576389 -0.643307 33.718979 0.194570 0.966873 0.165224 
22.593910 -0.648952 33.628719 0.116870 0.966183 0.229851 
22.650320 -0.619848 33.589828 0.234549 0.957319 0.168897 
22.653179 -0.638611 33.480122 0.374482 0.922335 0.095190 
22.692520 -0.624771 33.418621 0.390099 0.913533 0.115239 
22.698509 -0.640743 33.312969 0.550991 0.826633 0.114400 
22.733379 -0.630912 33.245510 0.437051 0.857190 0.272418 
22.760860 -0.627685 33.168240 0.467673 0.834891 0.290239 
22.805470 -0.609148 33.113659 0.222394 0.938917 0.262633 
22.818781 -0.618616 33.017529 0.307956 0.949293 0.063288 
22.851919 -0.610343 32.947689 0.079870 0.990611 0.110951 
22.875530 -0.610602 32.865170 0.171684 0.981076 0.089526 
22.909340 -0.601741 32.796181 0.036956 0.973751 0.224598 
22.946270 -0.590087 32.731319 0.358319 0.907249 0.220242 
22.977980 -0.583111 32.659489 0.279852 0.940414 0.193145 
22.998310 -0.586333 32.572491 0.553115 0.831119 0.057488 
23.016291 -0.591668 32.482330 0.436263 0.888098 0.144765 
23.045010 -0.587388 32.406429 0.561350 0.823443 0.082639 
23.057560 -0.597599 32.308949 0.373784 0.868285 0.326139 
23.108410 -0.573496 32.262520 0.406991 0.856410 0.317678 
23.129360 -0.576199 32.176170 0.252809 0.946741 0.199424 
23.167971 -0.563070 32.113392 0.304318 0.942532 0.137930 
23.184019 -0.570175 32.020439 0.211802 0.952495 0.218845 
23.228880 -0.551456 31.965950 0.289892 0.922633 0.254383 
23.254620 -0.549880 31.885900 0.287873 0.904489 0.314689 
23.298420 -0.532114 31.829981 0.464615 0.858738 0.216104 
23.307280 -0.545695 31.727270 0.466489 0.881451 0.073702 
23.337000 -0.540569 31.652451 0.473467 0.876345 0.088592 
23.351151 -0.549415 31.556740 0.541761 0.823839 0.166683 
23.388491 -0.537460 31.492081 0.349515 0.897956 0.267422 
23.408030 -0.541493 31.403521 0.443074 0.852832 0.276340 
23.456209 -0.519815 31.353371 0.234281 0.923402 0.304043 
23.477409 -0.522366 31.266979 0.308573 0.918458 0.247424 
23.526970 -0.499450 31.218670 0.208122 0.938537 0.275378 
23.543091 -0.506571 31.125401 0.281135 0.940651 0.190103 
23.590931 -0.485216 31.074739 0.165566 0.958026 0.234038 
23.607630 -0.491821 30.982189 0.494710 0.868874 -0.017890 
23.621401 -0.501076 30.885639 0.349709 0.936641 0.020183 
23.636299 -0.509322 30.790569 0.640000 0.761281 -0.104173 
23.634890 -0.532229 30.673470 0.239190 0.937837 0.251496 
23.691170 -0.503304 30.634100 0.261122 0.912611 0.314572 
23.716539 -0.502165 30.553030 0.151309 0.934619 0.321859 
23.769131 -0.476548 30.508690 0.151290 0.923305 0.353015 
23.807619 -0.463623 30.445290 0.126297 0.948416 0.290785 
23.842609 -0.453839 30.377159 0.451499 0.882157 0.133968 
23.858669 -0.461087 30.283409 0.235378 0.945694 0.224189 
23.902031 -0.443789 30.226549 0.456364 0.882432 0.114213 
23.901951 -0.465570 30.110889 0.272862 0.952118 0.137903 
23.950550 -0.443565 30.061081 0.263671 0.960453 0.089484 
23.952240 -0.463776 29.947710 0.246260 0.962347 0.115085 
24.000719 -0.441882 29.897711 0.198225 0.966152 0.165098 
24.011110 -0.454274 29.796049 0.283566 0.923582 0.258046 
24.066931 -0.425785 29.755970 0.218269 0.940099 0.261863 
24.078871 -0.436799 29.656340 0.249659 0.960403 0.123676 
24.125050 -0.416988 29.603161 0.182981 0.971566 0.150260 
24.137609 -0.427455 29.504299 0.301091 0.936361 0.180480 
24.185129 -0.406444 29.452921 0.305281 0.924599 0.227858 
24.195801 -0.418631 29.351400 0.514809 0.848881 0.119888 
24.233601 -0.406383 29.286760 0.226602 0.960294 0.162746 
24.248030 -0.415201 29.190281 0.440777 0.896816 -0.037902 
24.263090 -0.423461 29.094610 0.115686 0.983593 0.138427 
24.306080 -0.406548 29.036961 0.252413 0.954446 0.159125 
24.327909 -0.408713 28.950460 0.099747 0.955938 0.276102 
24.378000 -0.385402 28.902479 0.205155 0.933406 0.294390 
24.412800 -0.375886 28.833620 0.219271 0.962512 0.159656 
24.434280 -0.378387 28.746540 0.436726 0.899578 -0.005449 
24.442980 -0.392418 28.641970 0.265604 0.942103 0.204685 
24.492430 -0.369697 28.593060 0.328965 0.913533 0.239250 
24.506769 -0.378664 28.496111 0.226124 0.959994 0.165164 
24.550631 -0.360992 28.439529 0.263506 0.961664 0.075940 
24.550730 -0.382820 28.323009 0.294685 0.952940 0.071178 
24.594030 -0.365668 28.265610 0.182083 0.970961 0.155178 
24.608641 -0.374414 28.168880 0.281636 0.930983 0.232275 
24.661650 -0.348495 28.124769 0.174089 0.929118 0.326239 
24.689739 -0.345078 28.046471 0.352496 0.924468 0.145277 
24.717260 -0.342191 27.967350 0.238488 0.966063 0.099225 
24.735910 -0.347318 27.876020 0.423068 0.902611 0.079412 
24.766720 -0.341465 27.801359 0.222088 0.945552 0.237925 
24.800591 -0.332851 27.730890 0.418879 0.883013 0.211726 
24.832010 -0.326459 27.657009 0.154238 0.971751 0.178634 
24.857491 -0.325443 27.574940 0.439861 0.896976 -0.044238 
24.858509 -0.346543 27.459150 0.232322 0.970935 0.057541 
24.902451 -0.328848 27.402430 0.255065 0.966016 0.041897 
24.899929 -0.353172 27.281651 0.197940 0.974639 0.104396 
24.951469 -0.328613 27.235371 0.152671 0.975355 0.159291 
24.961990 -0.341157 27.132490 0.275616 0.932810 0.232165 
25.014339 -0.315868 27.087311 0.276872 0.923486 0.265549 
25.028709 -0.324948 26.989660 0.359218 0.889665 0.281884 
25.085230 -0.295881 26.950239 0.293891 0.904023 0.310435 
25.098330 -0.306124 26.850760 0.441078 0.887589 0.132801 
25.140070 -0.290443 26.790871 0.249556 0.955812 0.155389 
25.149170 -0.304326 26.685770 0.496255 0.866726 -0.050176 
25.163691 -0.313305 26.588131 0.153644 0.977941 0.141509 
25.203350 -0.299525 26.525290 0.298631 0.940854 0.160041 
25.227850 -0.299483 26.441401 0.119550 0.956318 0.266767 
25.277470 -0.276681 26.392349 0.348360 0.921614 0.171095 
25.287420 -0.289832 26.288210 0.320888 0.916171 0.240127 
25.335051 -0.268847 26.236361 0.475396 0.855332 0.205929 
25.342239 -0.284512 26.128309 0.481247 0.834794 0.267434 
25.389971 -0.263437 26.076571 0.435442 0.852951 0.287864 
25.406750 -0.270427 25.981770 0.199264 0.937841 0.284161 
25.466551 -0.238414 25.946791 0.231111 0.946456 0.225409 
25.471769 -0.255904 25.835831 0.274654 0.959378 0.064495 
25.512939 -0.240789 25.774900 0.235023 0.969591 0.068245 
25.513149 -0.262842 25.656851 0.443329 0.893717 0.068766 
25.552820 -0.249100 25.593769 0.163538 0.961927 0.218979 
25.578409 -0.248135 25.511040 0.346334 0.932792 0.099762 
25.608770 -0.242857 25.434919 0.246213 0.961251 0.124000 
25.627911 -0.247766 25.343100 0.527997 0.847326 0.057071 
25.651331 -0.248794 25.257231 0.296454 0.917470 0.265264 
25.694229 -0.232139 25.198561 0.250196 0.912022 0.324990 
25.730690 -0.221334 25.130871 0.138756 0.963328 0.229664 
25.764759 -0.212713 25.059811 0.372410 0.927524 0.031783 
25.766720 -0.233254 24.943769 0.290605 0.954926 0.060544 
25.806299 -0.219634 24.880369 0.228046 0.966074 0.121225 
25.817530 -0.231781 24.777210 0.313347 0.906464 0.283085 
25.877510 -0.199622 24.742390 0.270170 0.904380 0.330310 
25.887779 -0.212659 24.637800 0.453169 0.886385 0.094656 
25.925470 -0.200769 24.571671 0.373754 0.914988 0.152002 
25.939100 -0.210762 24.471720 0.538404 0.841437 0.045884 
25.962111 -0.212233 24.384899 0.281513 0.934690 0.217037 
25.998100 -0.201911 24.316290 0.411053 0.904884 0.110545 
26.010269 -0.213259 24.214149 0.179292 0.982290 0.054417 
26.045450 -0.203681 24.144360 0.222008 0.974675 0.026839 
26.053209 -0.219059 24.035919 0.164238 0.964490 0.206846 
26.111500 -0.188457 23.998631 0.135359 0.946705 0.292279 
26.137470 -0.187272 23.915779 0.291371 0.894589 0.338840 
26.187580 -0.164116 23.866961 0.345185 0.908951 0.233787 
26.199751 -0.175517 23.764580 0.382798 0.920660 0.076499 
26.231560 -0.169026 23.689899 0.423503 0.903581 0.064697 
26.239090 -0.184670 23.580860 0.572358 0.819456 0.029976 
26.266190 -0.182491 23.499439 0.229987 0.944735 0.233628 
26.303659 -0.170862 23.432671 0.239882 0.943993 0.226571 
26.340010 -0.160270 23.364269 0.070284 0.987070 0.144062 
26.362400 -0.162395 23.276110 0.345698 0.938037 -0.024051 
26.373779 -0.174571 23.172291 0.137442 0.976895 0.163665 
26.425690 -0.149804 23.125879 0.188237 0.964871 0.183277 
26.441561 -0.157903 23.028351 0.276875 0.940998 0.194583 
26.483780 -0.141974 22.968170 0.368275 0.918677 0.142848 
26.492580 -0.156531 22.860540 0.469081 0.877305 0.101489 
26.530081 -0.144913 22.793619 0.208570 0.931919 0.296692 
22.650200 -0.672374 33.776409 0.410038 0.880176 0.239081 
22.681841 -0.665412 33.704819 0.208407 0.944884 0.252508 
22.713131 -0.658758 33.632759 0.497511 0.861108 0.104768 
22.728889 -0.666004 33.540119 0.337117 0.937050 0.091041 
22.752951 -0.665831 33.458420 0.519580 0.854342 -0.011707 
22.754829 -0.685507 33.347321 0.496159 0.862457 0.099967 
22.789070 -0.676242 33.279041 0.417491 0.888848 0.188812 
22.805651 -0.682783 33.187321 0.361307 0.827310 0.430134 
22.872931 -0.643950 33.162819 0.142149 0.892051 0.428998 
22.895260 -0.645352 33.078690 0.144610 0.967258 0.208565 
22.942419 -0.624531 33.027481 0.215278 0.966029 0.142979 
22.951429 -0.637874 32.925598 0.301091 0.947169 0.110524 
22.991341 -0.623556 32.864731 0.307463 0.939524 0.150870 
23.000629 -0.636661 32.763142 0.344911 0.913461 0.215927 
23.051180 -0.612816 32.716381 0.300416 0.930139 0.211165 
23.061560 -0.624966 32.616150 0.418313 0.906501 0.057177 
23.090429 -0.620546 32.540520 0.288388 0.954203 0.079554 
23.103451 -0.630343 32.443722 0.450404 0.892507 0.023812 
23.127871 -0.629937 32.362061 0.179013 0.958453 0.222088 
23.166161 -0.617092 32.298901 0.247983 0.925245 0.287098 
23.208031 -0.601045 32.240490 0.144616 0.956117 0.254808 
23.236799 -0.596741 32.164589 0.346568 0.927664 0.139035 
23.265240 -0.592747 32.088200 0.240559 0.952433 0.187088 
23.295130 -0.587457 32.013729 0.408516 0.899531 0.154788 
23.318720 -0.587822 31.930811 0.276240 0.925523 0.259034 
23.359261 -0.572980 31.870550 0.447629 0.871923 0.198438 
23.380880 -0.575125 31.784929 0.406458 0.910460 0.076514 
23.395800 -0.583285 31.690310 0.561608 0.826250 -0.043673 
23.399000 -0.601985 31.579929 0.344478 0.906257 0.245015 
23.454950 -0.573321 31.540230 0.238247 0.944024 0.228159 
23.466730 -0.584331 31.441271 0.290409 0.907912 0.302255 
23.524281 -0.554240 31.403709 0.355259 0.883670 0.304827 
23.534281 -0.566862 31.302290 0.353317 0.872074 0.338607 
23.591690 -0.536897 31.264540 0.347052 0.869998 0.350227 
23.606630 -0.545090 31.169689 0.283092 0.909328 0.304929 
23.660339 -0.518449 31.126961 0.370698 0.892636 0.256483 
23.666491 -0.534557 31.020210 0.441952 0.894613 0.065924 
23.699961 -0.526120 30.950199 0.377028 0.926077 0.015221 
23.693020 -0.554008 30.825729 0.433975 0.900568 -0.025346 
23.728239 -0.544014 30.757999 0.080098 0.981968 0.171240 
23.755320 -0.541329 30.679300 0.288805 0.933603 0.212078 
23.797359 -0.525204 30.620741 0.083943 0.950838 0.298095 
23.830330 -0.517238 30.549919 0.292562 0.898431 0.327460 
23.876490 -0.497410 30.496901 0.284620 0.909266 0.303689 
23.897100 -0.500574 30.409349 0.442665 0.876092 0.191080 
23.936819 -0.486545 30.347601 0.298417 0.922585 0.244508 
23.958851 -0.488438 30.261921 0.391889 0.899182 0.194665 
24.002609 -0.470787 30.205589 0.204571 0.951852 0.228319 
24.023279 -0.473915 30.118000 0.428175 0.903634 0.010545 
24.036261 -0.483976 30.019960 0.146797 0.982544 0.114268 
24.074490 -0.471310 29.956091 0.325932 0.942458 0.074442 
24.084949 -0.483660 29.854530 0.136074 0.968702 0.207604 
24.136980 -0.458573 29.809340 0.222821 0.951169 0.213607 
24.157669 -0.461715 29.721609 0.164630 0.973897 0.156276 
24.193769 -0.450985 29.654770 0.385716 0.919847 0.071454 
24.203079 -0.464404 29.551491 0.307154 0.935731 0.173392 
24.244551 -0.448841 29.491899 0.431844 0.889641 0.148491 
24.255079 -0.461180 29.390200 0.361174 0.890094 0.278003 
24.311710 -0.431954 29.351200 0.308345 0.904542 0.294496 
24.318480 -0.447692 29.244310 0.333313 0.940232 0.069764 
24.356119 -0.435598 29.179430 0.213095 0.969736 0.119176 
24.369471 -0.445416 29.081409 0.317343 0.935198 0.157158 
24.415541 -0.425726 29.027981 0.120849 0.958712 0.257423 
24.440180 -0.425374 28.945299 0.409099 0.880616 0.239069 
24.480770 -0.410639 28.884350 0.274027 0.933409 0.231640 
24.499269 -0.415841 28.793221 0.577553 0.816280 -0.010928 
24.513571 -0.424843 28.696310 0.288787 0.937674 0.193309 
24.551390 -0.412617 28.631519 0.315721 0.906244 0.281145 
24.591459 -0.398357 28.569790 0.144196 0.949148 0.279866 
24.624640 -0.390331 28.498619 0.414399 0.908525 0.053436 
24.631550 -0.406032 28.391439 0.195576 0.975668 0.099107 
24.672171 -0.391288 28.330410 0.350330 0.932669 0.086012 
24.680420 -0.405804 28.224960 0.198356 0.965279 0.169976 
24.725220 -0.387294 28.169621 0.255250 0.939665 0.227763 
24.750389 -0.386527 28.087320 0.269496 0.929700 0.251058 
24.797421 -0.366008 28.035009 0.392557 0.910504 0.129930 
24.793880 -0.391210 27.913210 0.459467 0.882258 0.102517 
24.834110 -0.376854 27.851500 0.354651 0.910658 0.211956 
24.851089 -0.383517 27.757811 0.294215 0.890480 0.347106 
24.917530 -0.345454 27.732149 0.324706 0.888383 0.324564 
24.920370 -0.364925 27.618931 0.493522 0.869715 -0.005657 
24.946100 -0.363694 27.537189 0.175735 0.978868 0.104567 
24.969860 -0.364254 27.452690 0.402572 0.914891 0.030154 
24.990761 -0.367417 27.364201 0.135728 0.979544 0.148566 
25.027830 -0.355934 27.298010 0.400764 0.912412 0.083026 
25.038750 -0.368142 27.195690 0.174602 0.971654 0.159384 
25.081221 -0.351784 27.136900 0.360352 0.923968 0.128177 
25.094669 -0.361719 27.037979 0.315129 0.912563 0.260620 
25.141001 -0.341875 26.984489 0.428987 0.869620 0.244401 
25.155519 -0.350851 26.886980 0.431626 0.858357 0.277349 
25.203880 -0.329172 26.836269 0.400524 0.885574 0.235241 
25.208050 -0.347542 26.724350 0.291165 0.948341 0.125982 
25.260481 -0.322186 26.679239 0.108400 0.982669 0.150371 
25.267179 -0.338272 26.570749 0.294425 0.947876 0.121839 
25.315300 -0.316825 26.519640 0.123010 0.967892 0.219213 
25.333521 -0.322491 26.427040 0.469115 0.879573 0.079266 
25.362909 -0.318036 26.349890 0.293761 0.939390 0.176779 
25.387980 -0.317502 26.266729 0.612201 0.787952 0.065892 
25.404730 -0.324519 26.171970 0.350688 0.898771 0.263111 
25.448050 -0.307443 26.114111 0.340846 0.881561 0.326611 
25.483580 -0.297435 26.045401 0.197721 0.905312 0.375921 
25.527519 -0.279800 25.988390 0.423961 0.871913 0.244999 
25.546801 -0.284556 25.896999 0.193778 0.968157 0.158503 
25.583490 -0.273505 25.829861 0.388023 0.921594 0.010137 
25.579870 -0.299056 25.706490 0.197648 0.973971 0.110974 
25.633249 -0.272869 25.662550 0.172373 0.973894 0.147706 
25.645571 -0.283973 25.561300 0.354870 0.931089 0.084506 
25.678150 -0.276673 25.488319 0.368350 0.925745 0.085526 
25.690161 -0.288074 25.386551 0.554434 0.831716 0.029178 
25.712700 -0.289915 25.299450 0.289183 0.911381 0.292844 
25.758860 -0.270299 25.245359 0.270996 0.868115 0.415858 
25.803070 -0.252459 25.188530 0.222929 0.923578 0.311940 
25.828119 -0.252033 25.104870 0.454306 0.890288 0.031515 
25.841780 -0.261968 25.005220 0.165935 0.979459 0.114564 
25.881571 -0.248149 24.942150 0.371137 0.928219 0.025801 
25.881020 -0.271026 24.822479 0.276049 0.929194 0.245753 
25.935989 -0.243417 24.780649 0.346658 0.902017 0.257279 
25.948481 -0.254457 24.679171 0.537851 0.835217 0.114579 
25.977520 -0.250441 24.600910 0.561248 0.816523 0.135243 
25.993561 -0.258256 24.504351 0.581400 0.794282 0.176321 
26.031900 -0.245792 24.439091 0.300099 0.891105 0.340402 
26.065941 -0.237243 24.367760 0.282294 0.916452 0.283596 
26.109760 -0.219799 24.310169 0.128687 0.975378 0.179101 
26.124411 -0.228914 24.211510 0.274416 0.961295 0.024654 
26.154490 -0.223980 24.134541 0.069709 0.991427 0.110515 
26.179859 -0.223352 24.050890 0.315594 0.942681 0.108413 
26.209030 -0.219257 23.972580 0.128491 0.957961 0.256515 
26.252060 -0.202555 23.913780 0.369181 0.916009 0.156950 
26.269360 -0.209286 23.818670 0.430075 0.899742 0.074165 
26.292160 -0.211024 23.731260 0.555021 0.831731 -0.013259 
26.293190 -0.232603 23.613060 0.430635 0.886645 0.168567 
26.343121 -0.209629 23.563919 0.179183 0.933557 0.310427 
26.369240 -0.208351 23.481110 0.177206 0.916519 0.358595 
26.434380 -0.171505 23.453489 0.225660 0.921294 0.316694 
26.437929 -0.190823 23.338671 0.287395 0.957704 -0.014386 
26.466591 -0.187255 23.259359 0.101092 0.989237 0.105789 
26.494780 -0.184122 23.179350 0.354441 0.929991 0.097404 
26.521021 -0.182766 23.096560 0.143381 0.975757 0.165347 
26.555599 -0.173805 23.025570 0.398926 0.916820 0.017269 
26.557190 -0.194971 22.907700 0.266201 0.960086 0.085863 
26.598650 -0.179744 22.846420 0.110416 0.962641 0.247245 
22.670601 -0.727850 33.876640 0.302887 0.916906 0.259889 
22.704029 -0.719281 33.807449 0.343564 0.867155 0.360562 
22.750071 -0.699429 33.754921 0.308167 0.906909 0.287313 
22.767990 -0.704755 33.665169 0.472623 0.867471 0.155312 
22.803970 -0.693917 33.599300 0.333957 0.929190 0.158360 
22.818710 -0.702093 33.505291 0.566585 0.821568 -0.063309 
22.823090 -0.719560 33.397499 0.269235 0.956929 0.108621 
22.864450 -0.703915 33.338680 0.367591 0.925061 0.095600 
22.871880 -0.718672 33.234840 0.119415 0.935419 0.332763 
22.939501 -0.679513 33.210819 0.080560 0.917066 0.390512 
22.973450 -0.670525 33.142109 0.078953 0.964941 0.250311 
23.009741 -0.659436 33.076511 0.367009 0.927640 0.069201 
23.019819 -0.671838 32.976059 0.268726 0.955847 0.118923 
23.057131 -0.659845 32.911751 0.331814 0.932907 0.139944 
23.078600 -0.662054 32.826370 0.370200 0.907939 0.196463 
23.113609 -0.652135 32.758961 0.423584 0.883684 0.199196 
23.133471 -0.655800 32.671371 0.204087 0.966078 0.158247 
23.172489 -0.642285 32.609268 0.273120 0.960398 0.055147 
23.176270 -0.660392 32.500172 0.231429 0.970427 0.068641 
23.219709 -0.642922 32.443920 0.114532 0.983302 0.141422 
23.236320 -0.649533 32.351841 0.195087 0.959969 0.200999 
23.285110 -0.627271 32.302700 0.169954 0.962994 0.209184 
23.300890 -0.634634 32.209461 0.317049 0.941131 0.117272 
23.336090 -0.624582 32.142120 0.230566 0.961050 0.152387 
23.356979 -0.627375 32.055641 0.336938 0.926771 0.166036 
23.396629 -0.613326 31.994221 0.294106 0.936425 0.191337 
23.412689 -0.620470 31.901211 0.509146 0.844918 0.163963 
23.449499 -0.608987 31.835939 0.327336 0.930812 0.162607 
23.462799 -0.618617 31.739170 0.372351 0.927554 0.031588 
23.491920 -0.614053 31.663540 0.056994 0.983502 0.171686 
23.525591 -0.605403 31.593990 0.335089 0.939742 0.067827 
23.539320 -0.614673 31.497669 0.183954 0.967407 0.174027 
23.578751 -0.600850 31.435810 0.342263 0.925715 0.160957 
23.600370 -0.603049 31.350000 0.151738 0.950127 0.272459 
23.647240 -0.582553 31.298100 0.366340 0.892726 0.262363 
23.676340 -0.578026 31.222309 0.259875 0.911285 0.319414 
23.716450 -0.563612 31.161289 0.549933 0.805768 0.219800 
23.738079 -0.565817 31.075390 0.367267 0.910397 0.190504 
23.769329 -0.559383 31.002399 0.455907 0.889517 0.030138 
23.769850 -0.580589 30.888000 0.165674 0.983967 0.066039 
23.814659 -0.561960 30.833229 0.152107 0.985161 0.079502 
23.822210 -0.576863 30.728201 0.160938 0.968478 0.190132 
23.880791 -0.545850 30.691980 0.144704 0.967033 0.209542 
23.891790 -0.557664 30.591530 0.271601 0.931110 0.243449 
23.944130 -0.532274 30.546869 0.347891 0.900920 0.259452 
23.959570 -0.540098 30.452351 0.447705 0.866009 0.222685 
23.999861 -0.525556 30.391390 0.361606 0.896544 0.255832 
24.020590 -0.528636 30.303949 0.495962 0.821006 0.282790 
24.064600 -0.510754 30.247990 0.361705 0.863629 0.351161 
24.088650 -0.510852 30.164980 0.324558 0.926810 0.188907 
24.128090 -0.497091 30.102800 0.214129 0.965773 0.146395 
24.141411 -0.506874 30.005190 0.315279 0.944394 0.093374 
24.180710 -0.493247 29.942780 0.110578 0.977998 0.176894 
24.203501 -0.494506 29.857941 0.297415 0.936232 0.187121 
24.246969 -0.477130 29.801149 0.207980 0.962045 0.176675 
24.259050 -0.488054 29.701710 0.416542 0.908894 0.020113 
24.284889 -0.486588 29.620911 0.209717 0.971937 0.106570 
24.307961 -0.487614 29.536329 0.510208 0.859981 -0.010982 
24.315451 -0.502709 29.430500 0.301184 0.908919 0.288365 
24.368891 -0.476356 29.387180 0.338600 0.888592 0.309443 
24.391171 -0.478121 29.301411 0.273950 0.941744 0.195114 
24.428610 -0.466207 29.236280 0.303830 0.945610 0.116229 
24.439819 -0.477979 29.135349 0.136877 0.974941 0.175373 
24.490959 -0.453711 29.088860 0.185093 0.974509 0.126780 
24.496740 -0.470397 28.980450 0.233593 0.944771 0.229873 
24.557711 -0.437250 28.947371 0.265881 0.951842 0.152659 
24.548750 -0.467266 28.818729 0.530270 0.843548 0.085096 
24.593679 -0.448617 28.763691 0.217687 0.942756 0.252634 
24.612890 -0.453202 28.673479 0.329073 0.903553 0.274415 
24.662621 -0.430223 28.624981 0.273629 0.904926 0.325939 
24.685320 -0.431674 28.539471 0.441812 0.885334 0.144866 
24.718330 -0.423799 28.468060 0.253697 0.959142 0.125238 
24.732189 -0.433255 28.370371 0.323503 0.937762 0.126289 
24.777109 -0.414628 28.315229 0.138853 0.970845 0.195394 
24.798031 -0.417714 28.227150 0.398654 0.913226 0.084217 
24.823490 -0.416697 28.145260 0.290354 0.939531 0.181594 
24.851959 -0.412961 28.067490 0.468277 0.882198 0.049432 
24.863800 -0.424272 27.966829 0.263243 0.958124 0.112697 
24.900730 -0.412902 27.900600 0.364149 0.920258 0.143254 
24.921730 -0.415939 27.812460 0.323435 0.893425 0.311740 
24.964899 -0.398931 27.754780 0.484038 0.829908 0.277416 
24.987061 -0.400935 27.668171 0.315389 0.921814 0.225363 
25.031620 -0.382662 27.612391 0.297365 0.942068 0.155186 
25.035650 -0.401098 27.500719 0.398869 0.915321 0.055589 
25.071289 -0.390916 27.432590 0.253464 0.959678 0.121550 
25.083700 -0.401784 27.332371 0.335790 0.929405 0.153142 
25.133610 -0.378683 27.283899 0.215320 0.956965 0.194563 
25.144581 -0.390863 27.181629 0.500409 0.865724 0.010666 
25.166229 -0.393383 27.094049 0.232541 0.952397 0.197139 
25.203779 -0.381494 27.028440 0.417627 0.901294 0.115137 
25.215010 -0.393461 26.926399 0.279020 0.924444 0.259905 
25.267059 -0.368446 26.880800 0.282822 0.921911 0.264748 
25.290661 -0.369214 26.795811 0.072261 0.967363 0.242874 
25.340191 -0.346481 26.746710 0.316374 0.940435 0.124459 
25.344040 -0.365175 26.634279 0.130239 0.982782 0.131062 
25.394190 -0.341878 26.586020 0.246914 0.963424 0.104148 
25.400290 -0.358552 26.476610 0.400943 0.913003 0.075305 
25.435471 -0.348847 26.407539 0.405598 0.908982 0.096136 
25.441080 -0.365989 26.297340 0.539988 0.837710 0.081581 
25.476089 -0.356448 26.227970 0.316991 0.907921 0.274219 
25.507660 -0.350038 26.153790 0.464805 0.826619 0.317264 
25.547070 -0.336514 26.090490 0.234118 0.887060 0.397887 
25.584990 -0.324341 26.025110 0.270263 0.887516 0.373194 
25.637079 -0.299311 25.979450 0.160049 0.947156 0.277994 
25.652790 -0.307323 25.883080 0.384570 0.921195 0.059206 
25.685900 -0.299530 25.810949 0.158210 0.979883 0.121650 
25.705460 -0.304058 25.719879 0.477339 0.878709 0.004276 
25.721399 -0.311887 25.623699 0.325780 0.941404 0.087329 
25.749340 -0.308812 25.544250 0.441893 0.897027 -0.008506 
25.747030 -0.333246 25.422489 0.473687 0.876849 0.082196 
25.788290 -0.318084 25.361570 0.262820 0.929704 0.258023 
25.811781 -0.319077 25.275789 0.313598 0.846236 0.430745 
25.876289 -0.282769 25.247391 0.220939 0.875321 0.430116 
25.895849 -0.287348 25.156059 0.223336 0.959864 0.169653 
25.941299 -0.268378 25.100969 0.161975 0.982158 0.095550 
25.945021 -0.287387 24.987350 0.400142 0.913957 -0.067595 
25.965370 -0.291264 24.897020 0.163043 0.978533 0.126056 
25.999960 -0.282194 24.826620 0.456388 0.887412 0.064880 
26.006990 -0.298213 24.717501 0.593695 0.799170 0.094098 
26.040039 -0.290561 24.644871 0.528678 0.840152 0.121012 
26.042561 -0.310708 24.529310 0.459235 0.852207 0.250693 
26.094450 -0.285906 24.483110 0.236044 0.889677 0.390844 
26.124840 -0.280689 24.406660 0.160503 0.896149 0.413711 
26.187731 -0.245862 24.375950 0.172725 0.940698 0.291982 
26.200060 -0.257107 24.274031 0.160531 0.980311 0.114977 
26.245239 -0.238427 24.218349 0.188236 0.978282 0.086780 
26.253260 -0.253613 24.110279 0.264188 0.957158 0.118547 
26.299990 -0.233524 24.056761 0.168993 0.967303 0.189119 
26.314409 -0.242899 23.957609 0.503776 0.863453 0.025666 
26.336430 -0.245341 23.869169 0.303964 0.950199 0.068763 
26.355860 -0.250161 23.777020 0.513227 0.855794 -0.064923 
26.360701 -0.268293 23.664209 0.207207 0.961117 0.182536 
26.412460 -0.243641 23.617680 0.275436 0.935287 0.222201 
26.431240 -0.249076 23.524500 0.195599 0.897485 0.395300 
26.491800 -0.216394 23.490419 0.169004 0.900606 0.400433 
26.526630 -0.207189 23.419910 0.181353 0.969212 0.166550 
26.554831 -0.204043 23.339991 0.295615 0.955151 0.017265 
26.560989 -0.221022 23.228781 0.332607 0.931778 0.145471 
26.611349 -0.197656 23.180220 0.210728 0.952915 0.218054 
26.622190 -0.210381 23.075560 0.391949 0.917502 0.067578 
26.660089 -0.198405 23.009260 0.100726 0.985449 0.136914 
26.679800 -0.203044 22.917110 0.353479 0.934778 0.035239 
26.704741 -0.202917 22.832350 0.182477 0.961801 0.204063 
22.743349 -0.757788 33.932678 0.354962 0.919079 0.171157 
22.766190 -0.758709 33.849510 0.255090 0.890248 0.377343 
22.816099 -0.735390 33.802109 0.377705 0.883658 0.276565 
22.829830 -0.744478 33.706841 0.499961 0.840069 0.210533 
22.870411 -0.729525 33.647060 0.433844 0.879111 0.197339 
22.874960 -0.746848 33.539570 0.449845 0.891446 0.054430 
22.911329 -0.735673 33.474171 0.166713 0.978834 0.118709 
22.923010 -0.746620 33.376041 0.274691 0.954436 0.116605 
22.971970 -0.724180 33.327290 -0.046286 0.959880 0.276566 
23.004869 -0.716121 33.257240 0.069488 0.938204 0.339034 
23.067270 -0.681629 33.226330 0.146814 0.952376 0.267254 
23.077431 -0.693970 33.126041 0.439646 0.896922 0.047350 
23.108379 -0.687673 33.053341 0.261281 0.958724 0.112168 
23.123590 -0.695503 32.959679 0.555457 0.831304 -0.020037 
23.133869 -0.707764 32.859421 0.365451 0.910331 0.194276 
23.176121 -0.691347 32.801670 0.287899 0.898038 0.332629 
23.218559 -0.674769 32.744148 0.210133 0.934845 0.286198 
23.244410 -0.673074 32.664532 0.415847 0.907416 0.060556 
23.261000 -0.679705 32.572521 0.096925 0.986916 0.128847 
23.300409 -0.665852 32.510921 0.160256 0.983270 0.086598 
23.316010 -0.673374 32.417530 0.054046 0.988218 0.143193 
23.362520 -0.653158 32.365360 0.154385 0.980335 0.122917 
23.380779 -0.658310 32.275459 0.104474 0.988596 0.108455 
23.419300 -0.645271 32.212589 0.282274 0.958462 0.040881 
23.426149 -0.660686 32.107349 0.346885 0.931235 0.111681 
23.463650 -0.648577 32.043072 0.452420 0.883570 0.120916 
23.471920 -0.662727 31.939650 0.458036 0.851465 0.255363 
23.523331 -0.638127 31.893950 0.292971 0.908343 0.298465 
23.534210 -0.649949 31.793949 0.199435 0.968426 0.149590 
23.582939 -0.627759 31.744640 0.102563 0.982126 0.157827 
23.595600 -0.638006 31.646931 0.215652 0.971978 0.093560 
23.639879 -0.619819 31.591631 0.138934 0.981162 0.134232 
23.655451 -0.627455 31.497770 0.139083 0.982448 0.124310 
23.701870 -0.607357 31.445299 0.195026 0.976158 0.095290 
23.705320 -0.625911 31.335070 0.428195 0.896154 0.116436 
23.745970 -0.611000 31.274830 0.319253 0.922253 0.218008 
23.761801 -0.618437 31.181150 0.561199 0.800302 0.211122 
23.803320 -0.602758 31.122030 0.274249 0.906687 0.320477 
23.832041 -0.598602 31.045660 0.342942 0.918533 0.196692 
23.871120 -0.585124 30.983219 0.055430 0.979738 0.192458 
23.896660 -0.583840 30.902510 0.254474 0.966793 0.023546 
23.914530 -0.589464 30.811430 0.028677 0.992900 0.115440 
23.952600 -0.576910 30.747561 0.255349 0.962804 0.088350 
23.971399 -0.581716 30.657660 0.192564 0.974769 0.112887 
24.000250 -0.577470 30.581301 0.446401 0.891033 0.082377 
24.017740 -0.583473 30.489550 0.300267 0.917860 0.259562 
24.066620 -0.561195 30.440210 0.398667 0.899500 0.178784 
24.066759 -0.582846 30.324909 0.390504 0.865949 0.312472 
24.127359 -0.550005 30.291430 0.184442 0.901950 0.390470 
24.154520 -0.547313 30.212650 0.186056 0.944360 0.271231 
24.199930 -0.528169 30.158581 0.328180 0.930100 0.164962 
24.213909 -0.537376 30.061871 0.207981 0.961418 0.180054 
24.259979 -0.517642 30.008671 0.330979 0.932207 0.146435 
24.268419 -0.531853 29.904369 0.282610 0.934164 0.217875 
24.318991 -0.508064 29.857250 0.321872 0.923480 0.208766 
24.329590 -0.520344 29.755810 0.255784 0.961065 0.104538 
24.369209 -0.506449 29.693769 0.275302 0.959837 0.054057 
24.370001 -0.527603 29.578890 0.452490 0.890707 -0.043518 
24.394060 -0.527755 29.495630 0.145447 0.973500 0.176474 
24.429390 -0.517744 29.427670 0.364790 0.905407 0.217180 
24.462669 -0.509586 29.356911 0.172274 0.944209 0.280696 
24.502439 -0.495573 29.294970 0.180957 0.947973 0.261921 
24.543680 -0.480230 29.235029 0.117700 0.966925 0.226282 
24.571079 -0.477397 29.156191 0.404748 0.911800 0.069279 
24.591049 -0.481279 29.067169 0.212236 0.964773 0.155465 
24.622780 -0.474548 28.994181 0.551274 0.834180 -0.015543 
24.610559 -0.507542 28.861090 0.272270 0.952070 0.139399 
24.664520 -0.480730 28.818411 0.257937 0.947153 0.190710 
24.677179 -0.491253 28.719240 0.242666 0.942608 0.229353 
24.725180 -0.469828 28.668409 0.279024 0.930234 0.238351 
24.745701 -0.473256 28.579929 0.302413 0.921781 0.242624 
24.792879 -0.452585 28.527929 0.280472 0.939479 0.196762 
24.805849 -0.462850 28.429050 0.362544 0.913992 0.182157 
24.848120 -0.446620 28.370300 0.379740 0.900159 0.213333 
24.860310 -0.457611 28.270260 0.486230 0.860932 0.149589 
24.899309 -0.444350 28.206980 0.258586 0.930844 0.258192 
24.925791 -0.442423 28.126490 0.470384 0.876354 0.103648 
24.950640 -0.441982 28.043720 0.270379 0.959086 0.083964 
24.964029 -0.451922 27.945150 0.434797 0.900419 0.014076 
24.984831 -0.455151 27.856750 0.203807 0.955956 0.211214 
25.027321 -0.438752 27.798161 0.299557 0.935220 0.188756 
25.050510 -0.439843 27.712971 0.201128 0.945283 0.256882 
25.096411 -0.420361 27.659040 0.353705 0.925316 0.136684 
25.106039 -0.433742 27.555111 0.228561 0.965548 0.124411 
25.148979 -0.416947 27.497070 0.315060 0.944461 0.093435 
25.156660 -0.432116 27.390341 0.349477 0.923331 0.159143 
25.197880 -0.416883 27.329901 0.397681 0.900553 0.175655 
25.208860 -0.429077 27.227640 0.327302 0.938384 0.110946 
25.248711 -0.415102 27.165251 0.136546 0.976953 0.164064 
25.269360 -0.418542 27.076290 0.402499 0.912337 0.075065 
25.299049 -0.413790 26.999790 0.152289 0.969897 0.190022 
25.329630 -0.408232 26.924509 0.313523 0.911100 0.267581 
25.376020 -0.388337 26.871099 0.189899 0.934454 0.301222 
25.399500 -0.389235 26.785931 0.301529 0.928985 0.214635 
25.448580 -0.366908 26.736231 0.133906 0.970489 0.200551 
25.461889 -0.377039 26.636900 0.546794 0.834711 -0.065378 
25.469481 -0.392379 26.529579 0.394649 0.915862 0.073821 
25.500040 -0.386874 26.454100 0.488705 0.871813 0.033305 
25.502850 -0.406579 26.340019 0.463112 0.880838 0.098241 
25.538931 -0.396070 26.272150 0.358669 0.912239 0.197933 
25.557550 -0.401434 26.179960 0.290661 0.885260 0.363085 
25.621361 -0.365745 26.150631 0.149929 0.910959 0.384284 
25.643560 -0.367860 26.063379 0.273168 0.863868 0.423216 
25.707199 -0.332324 26.033831 0.270116 0.887662 0.372954 
25.716280 -0.346380 25.928240 0.351839 0.921952 0.161905 
25.760330 -0.328651 25.871370 0.324857 0.935795 0.136950 
25.763140 -0.348415 25.756950 0.505625 0.862055 0.034706 
25.795450 -0.341377 25.683630 0.284408 0.946517 0.152373 
25.817680 -0.343506 25.596220 0.529389 0.845821 -0.065838 
25.812830 -0.370272 25.470921 0.381992 0.917104 0.114031 
25.856791 -0.352655 25.413799 0.308219 0.929385 0.203087 
25.871811 -0.361364 25.316179 0.189676 0.906110 0.378138 
25.935049 -0.326200 25.286020 0.127411 0.880256 0.457074 
25.975821 -0.311493 25.224400 0.038407 0.946333 0.320902 
26.018520 -0.295021 25.165489 0.278665 0.953910 0.111363 
26.030800 -0.306254 25.063900 0.303222 0.952738 -0.018644 
26.050131 -0.311079 24.972151 0.344135 0.938917 -0.002282 
26.063120 -0.321674 24.871469 0.620142 0.777576 -0.103925 
26.058180 -0.348621 24.745550 0.401855 0.908284 0.116333 
26.100740 -0.332313 24.686279 0.439536 0.891200 0.112118 
26.111019 -0.345409 24.581640 0.190631 0.957651 0.215788 
26.161890 -0.321535 24.534019 0.147357 0.934092 0.325206 
26.199619 -0.309634 24.467920 -0.005893 0.917182 0.398426 
26.254740 -0.281882 24.426291 0.215335 0.913594 0.344932 
26.291620 -0.270759 24.358971 0.153027 0.963288 0.220589 
26.319040 -0.268262 24.278311 0.460257 0.887764 0.006177 
26.324949 -0.285399 24.167271 0.259041 0.949887 0.174963 
26.373560 -0.263593 24.116421 0.386822 0.907505 0.163718 
26.377670 -0.282376 24.002760 0.338462 0.928213 0.154482 
26.428961 -0.258138 23.955650 0.321467 0.936621 0.139286 
26.420750 -0.288187 23.824480 0.405822 0.913717 -0.020720 
26.456320 -0.278296 23.755119 0.123320 0.984808 0.122255 
26.475760 -0.283137 23.662910 0.382147 0.916480 0.118437 
26.511980 -0.272661 23.594431 0.053438 0.941068 0.333969 
26.558451 -0.252831 23.540430 0.229838 0.906632 0.353827 
26.597931 -0.239387 23.476530 0.231462 0.934377 0.270861 
26.629290 -0.233362 23.401100 0.530592 0.847609 0.005535 
26.626160 -0.258848 23.276730 0.348349 0.912946 0.212563 
26.678740 -0.233455 23.231331 0.467180 0.847812 0.250915 
26.686729 -0.248800 23.122629 0.267316 0.934828 0.233750 
26.741911 -0.221027 23.080919 0.245980 0.948964 0.197388 
26.746519 -0.239482 22.967331 0.201278 0.975789 0.085579 
26.794001 -0.218753 22.914640 0.096686 0.988333 0.117683 
26.807261 -0.229322 22.813259 0.314314 0.948350 -0.042884 
22.832970 -0.793967 33.897690 0.111412 0.930896 0.347880 
22.872770 -0.779706 33.836941 0.396955 0.908482 0.130716 
22.881229 -0.793533 33.734699 0.392395 0.882607 0.258903 
22.932730 -0.768795 33.689388 0.345347 0.905046 0.248250 
22.944201 -0.779930 33.591080 0.156889 0.970260 0.184339 
22.997160 -0.753891 33.547680 0.180972 0.974613 0.131828 
23.004360 -0.768869 33.443630 0.065001 0.986615 0.149549 
23.059320 -0.741038 33.402870 0.090941 0.974037 0.207323 
23.081640 -0.742479 33.318790 0.073923 0.957930 0.277318 
23.132570 -0.718253 33.272701 0.350019 0.922364 0.163497 
23.138460 -0.734442 33.166752 0.321009 0.939014 0.123313 
23.179859 -0.718780 33.107941 0.373860 0.924298 0.076816 
23.179319 -0.740757 32.993351 0.453034 0.890202 0.047964 
23.217340 -0.728141 32.930000 0.287186 0.945575 0.153008 
23.230789 -0.737579 32.833931 0.403730 0.861143 0.308926 
23.283970 -0.711358 32.790741 0.302424 0.875776 0.376240 
23.306150 -0.712966 32.706242 0.271406 0.924957 0.266069 
23.359249 -0.686820 32.662930 0.067111 0.954924 0.289164 
23.383751 -0.686360 32.581470 0.106397 0.980473 0.165383 
23.429300 -0.666994 32.528080 0.103621 0.987265 0.120712 
23.439440 -0.679441 32.427391 0.233327 0.968844 0.083062 
23.481911 -0.662848 32.369862 0.211601 0.972345 0.098845 
23.486740 -0.680086 32.261990 0.490941 0.867272 -0.082558 
23.498890 -0.690753 32.163860 0.248667 0.967976 0.034456 
23.521160 -0.692338 32.079208 0.510903 0.858471 -0.044789 
23.524549 -0.710899 31.969259 0.281650 0.909679 0.305216 
23.586861 -0.676491 31.938181 0.177655 0.915808 0.360186 
23.617010 -0.671001 31.864010 0.027194 0.962584 0.269616 
23.664591 -0.649841 31.813190 0.243858 0.959725 0.139507 
23.677931 -0.659490 31.716419 0.125821 0.988211 0.087223 
23.712111 -0.650385 31.647591 0.216159 0.968066 0.126980 
23.741871 -0.645269 31.572790 0.234402 0.957646 0.167243 
23.771320 -0.640430 31.497570 0.440717 0.896978 0.034619 
23.775190 -0.658629 31.387911 0.243589 0.964829 0.098845 
23.815950 -0.643625 31.327829 0.323169 0.943628 0.071602 
23.818640 -0.662910 31.216480 0.302573 0.929075 0.212765 
23.873520 -0.635196 31.175369 0.219561 0.933210 0.284451 
23.893339 -0.639066 31.087009 0.201335 0.925782 0.319988 
23.954741 -0.605480 31.054689 0.107114 0.945342 0.307986 
23.973310 -0.610479 30.964609 0.167490 0.970016 0.176114 
24.024441 -0.586156 30.918409 0.210547 0.966513 0.146707 
24.025640 -0.606824 30.804819 0.393392 0.917972 0.050704 
24.064119 -0.593898 30.741520 0.255636 0.959800 0.115906 
24.071369 -0.609138 30.635990 0.420323 0.907334 -0.008638 
24.094940 -0.609662 30.552490 0.193915 0.966931 0.165652 
24.127211 -0.602362 30.480700 0.433798 0.896505 0.089988 
24.146070 -0.607147 30.390760 0.097211 0.966173 0.238873 
24.194160 -0.585580 30.340361 0.201367 0.911364 0.358980 
24.237980 -0.567871 30.284161 0.193902 0.938846 0.284553 
24.260900 -0.569014 30.199631 0.398454 0.904641 0.151193 
24.295340 -0.559772 30.130690 0.239143 0.951658 0.192766 
24.318480 -0.560724 30.046400 0.463116 0.880703 0.099427 
24.344709 -0.558900 29.966270 0.383872 0.893535 0.232889 
24.379141 -0.549680 29.897240 0.369646 0.886815 0.277346 
24.413481 -0.540548 29.828060 0.132534 0.972017 0.193952 
24.441420 -0.537193 29.750179 0.412165 0.910980 -0.015357 
24.445030 -0.555817 29.639160 0.226565 0.972700 0.050237 
24.485510 -0.541153 29.578260 0.237337 0.969222 0.065426 
24.490311 -0.558720 29.468760 0.318498 0.932974 0.167686 
24.540730 -0.535083 29.421370 0.170212 0.941736 0.290106 
24.565531 -0.534596 29.339041 0.315605 0.900710 0.298521 
24.612690 -0.513909 29.287189 0.295341 0.920698 0.255127 
24.625521 -0.524257 29.188471 0.466746 0.874750 0.130228 
24.662710 -0.512587 29.122971 0.357756 0.917575 0.173401 
24.677750 -0.520950 29.027201 0.579680 0.812797 0.057731 
24.709129 -0.514539 28.953720 0.220398 0.960842 0.167951 
24.729639 -0.517976 28.865330 0.358237 0.924551 0.129894 
24.765261 -0.507738 28.797600 0.109022 0.971712 0.209498 
24.795780 -0.502127 28.722860 0.389204 0.914630 0.109422 
24.817591 -0.504401 28.636160 0.143963 0.966964 0.210371 
24.858900 -0.489037 28.576151 0.388783 0.917904 0.079373 
24.864401 -0.506083 28.467030 0.277055 0.947311 0.160754 
24.909100 -0.487656 28.411619 0.358886 0.927373 0.105739 
24.915020 -0.504348 28.302971 0.360943 0.905659 0.222493 
24.966761 -0.479546 28.257210 0.371251 0.896956 0.240087 
24.974369 -0.494723 28.150801 0.365877 0.900594 0.234657 
25.030100 -0.466313 28.110500 0.187819 0.960620 0.204778 
25.038271 -0.480993 28.004780 0.183900 0.979020 0.087753 
25.084909 -0.460831 27.951941 0.116159 0.985245 0.125697 
25.097780 -0.471274 27.852600 0.272559 0.954737 0.119116 
25.141150 -0.454071 27.795240 0.178589 0.963620 0.198854 
25.161470 -0.457774 27.706100 0.369681 0.922687 0.109471 
25.194679 -0.449799 27.634680 0.205996 0.970371 0.126273 
25.212851 -0.455456 27.542509 0.508799 0.860417 -0.028389 
25.222441 -0.468914 27.438431 0.323029 0.934299 0.150792 
25.262911 -0.454365 27.376961 0.377172 0.905977 0.192214 
25.285971 -0.455620 27.291410 0.116465 0.966375 0.229249 
25.334221 -0.434021 27.240660 0.324217 0.940373 0.102868 
25.333300 -0.457050 27.121870 0.287166 0.950611 0.117788 
25.382730 -0.434381 27.072729 0.250072 0.957358 0.144674 
25.388050 -0.451762 26.962481 0.327088 0.908839 0.258893 
25.444080 -0.423112 26.922449 0.167749 0.930341 0.326076 
25.466471 -0.425011 26.835779 0.221753 0.925095 0.308261 
25.520290 -0.398371 26.792681 0.326727 0.919225 0.219715 
25.519979 -0.420900 26.674450 0.544869 0.837280 -0.045601 
25.541840 -0.423297 26.586941 0.330593 0.940506 0.078465 
25.562799 -0.426520 26.498150 0.543397 0.838917 -0.030619 
25.569309 -0.442880 26.389231 0.251778 0.959488 0.126456 
25.613140 -0.425337 26.332140 0.231483 0.960687 0.153285 
25.632669 -0.429881 26.241249 0.088198 0.955149 0.282687 
25.687370 -0.402459 26.199270 0.236845 0.939114 0.248937 
25.704540 -0.409167 26.105021 0.139338 0.919244 0.368206 
25.767891 -0.373879 26.075090 0.220839 0.929414 0.295669 
25.788040 -0.377886 25.984930 0.195768 0.961826 0.191223 
25.829201 -0.362778 25.924070 0.403573 0.912978 0.059998 
25.828239 -0.386009 25.804371 0.379713 0.920896 0.088140 
25.869471 -0.370853 25.743540 0.318431 0.938170 0.135793 
25.877769 -0.385664 25.636690 0.587107 0.803672 -0.097034 
25.884560 -0.401867 25.527670 0.255499 0.958147 0.129128 
25.926649 -0.385947 25.467951 0.307630 0.922744 0.232178 
25.958870 -0.379019 25.394409 0.209021 0.927926 0.308649 
25.998240 -0.365573 25.330870 0.123104 0.872234 0.473342 
26.059509 -0.332191 25.297991 0.067656 0.917178 0.392692 
26.086060 -0.330434 25.216459 0.449633 0.888954 0.087120 
26.107220 -0.333589 25.127350 0.331566 0.942958 0.029898 
26.120859 -0.343608 25.027630 0.521285 0.847275 -0.101915 
26.118580 -0.368151 24.905510 0.516700 0.856150 -0.005409 
26.152781 -0.359444 24.834579 0.269561 0.959390 0.083107 
26.160170 -0.375192 24.725929 0.368955 0.923548 0.104555 
26.205460 -0.356389 24.670521 0.102734 0.968543 0.226650 
26.229870 -0.356634 24.585720 0.148685 0.944861 0.291771 
26.288940 -0.325272 24.549669 0.086520 0.940365 0.328981 
26.310301 -0.328304 24.460541 0.304420 0.897719 0.318478 
26.366039 -0.299978 24.419809 0.313642 0.902773 0.294330 
26.378180 -0.311439 24.317610 0.556840 0.830086 0.029773 
26.401770 -0.312458 24.231520 0.357621 0.919362 0.163954 
26.429199 -0.309980 24.150801 0.559991 0.823527 0.090628 
26.446360 -0.316882 24.055559 0.256543 0.942749 0.213097 
26.486710 -0.302620 23.993031 0.427507 0.898158 0.102709 
26.496031 -0.316693 23.886629 0.224030 0.967112 0.120440 
26.540661 -0.298533 23.830099 0.286298 0.953763 0.091488 
26.541821 -0.320076 23.712070 0.276848 0.950270 0.142625 
26.593300 -0.295663 23.665199 0.111718 0.953283 0.280663 
26.618971 -0.294835 23.581779 0.315717 0.897097 0.309096 
26.669130 -0.271634 23.533020 0.333473 0.904979 0.264213 
26.677811 -0.286342 23.425461 0.653088 0.756769 -0.027881 
26.696239 -0.292153 23.331659 0.402062 0.901322 0.161137 
26.724091 -0.289355 23.251200 0.536747 0.810290 0.235229 
26.763380 -0.276112 23.186930 0.065327 0.928639 0.365187 
26.807100 -0.258809 23.128960 0.123179 0.952709 0.277801 
26.850710 -0.241616 23.070820 0.035000 0.986052 0.162717 
26.873390 -0.243568 22.982910 0.312223 0.950008 0.001351 
26.889481 -0.251561 22.885571 0.273061 0.961955 -0.008971 
22.919559 -0.811436 33.972080 0.149152 0.972882 0.176787 
22.947201 -0.808079 33.895260 0.450681 0.892681 0.002646 
22.953850 -0.823541 33.790649 0.198246 0.969432 0.144571 
22.995621 -0.807518 33.732491 0.176488 0.948707 0.262311 
23.037479 -0.791418 33.674438 0.193516 0.945211 0.262923 
23.067011 -0.786383 33.600029 0.249663 0.944032 0.215573 
