19.968781 0.681564 28.959049 0.153261 0.976614 0.150785 
20.010590 0.697481 28.899309 0.327810 0.935982 0.128371 
20.022881 0.687646 28.800301 0.259930 0.956233 0.134367 
20.058969 0.698564 28.732920 0.407846 0.912184 0.039775 
20.054359 0.673976 28.611330 0.397498 0.916712 0.040437 
20.092100 0.686327 28.546089 0.272779 0.950871 0.146409 
20.103010 0.675256 28.445061 0.348248 0.893013 0.285046 
20.160879 0.705160 28.406601 0.253660 0.913737 0.317398 
20.177549 0.699108 28.313190 0.393249 0.897228 0.200840 
20.219700 0.715292 28.253750 0.240839 0.949432 0.201433 
20.236460 0.709304 28.160391 0.345243 0.925975 0.152898 
20.279690 0.726427 28.102369 0.265289 0.932385 0.245520 
20.296921 0.720841 28.009569 0.370437 0.892031 0.258953 
20.351151 0.747555 27.966209 0.167372 0.945793 0.278321 
20.364590 0.738649 27.868280 0.490990 0.870249 -0.039947 
20.376459 0.728358 27.768200 0.240942 0.970376 0.017840 
20.399349 0.727684 27.682831 0.387840 0.919744 -0.060428 
20.396749 0.704726 27.563250 0.216151 0.963439 0.158319 
20.459049 0.738486 27.530640 0.212877 0.963947 0.159652 
20.460529 0.719087 27.416460 0.192730 0.969406 0.152010 
20.518030 0.748652 27.377399 0.181509 0.962206 0.203014 
20.530180 0.738558 27.277439 0.299672 0.933221 0.198228 
20.576981 0.758758 27.224001 0.315242 0.917343 0.243112 
20.589439 0.748929 27.124390 0.428538 0.872014 0.236532 
20.638020 0.770680 27.073311 0.300002 0.926439 0.227396 
20.644440 0.755547 26.965490 0.502007 0.862268 -0.066959 
20.659870 0.748289 26.869740 0.183530 0.979116 0.087453 
20.687550 0.751745 26.790461 0.394900 0.902043 0.174278 
20.722580 0.761631 26.721060 0.157668 0.938594 0.306892 
20.760290 0.773850 26.655230 0.337268 0.909921 0.241441 
20.796249 0.784539 26.587040 0.213248 0.951993 0.219624 
20.823509 0.787611 26.507090 0.300775 0.937600 0.174474 
20.858419 0.797376 26.437441 0.184214 0.957467 0.222087 
20.889561 0.803831 26.362680 0.517533 0.854553 0.043571 
20.891319 0.784543 26.248159 0.308059 0.936127 0.169606 
20.937040 0.803766 26.193060 0.396058 0.913762 0.090423 
20.932400 0.778848 26.069771 0.259818 0.963181 0.069122 
20.980709 0.800332 26.018129 0.175102 0.975490 0.133261 
20.994200 0.791290 25.919300 0.141111 0.957132 0.252954 
21.059610 0.827757 25.890810 0.153765 0.967328 0.201576 
21.064640 0.811293 25.780460 0.170913 0.974760 0.143640 
21.121519 0.840272 25.740379 0.194651 0.957670 0.212081 
21.134630 0.830880 25.640921 0.259522 0.933330 0.248078 
21.188021 0.856806 25.596109 0.232031 0.937343 0.259903 
21.201191 0.847439 25.496630 0.455636 0.889573 0.032509 
21.227850 0.849908 25.415449 0.300486 0.952803 0.043293 
21.235550 0.835732 25.308451 0.507770 0.854295 -0.111128 
21.237431 0.816441 25.193480 0.275212 0.955313 0.107870 
21.277109 0.830314 25.129910 0.368228 0.911280 0.184329 
21.300249 0.829664 25.043791 0.070162 0.909690 0.409319 
21.370440 0.870327 25.021790 -0.080936 0.855678 0.511140 
21.427231 0.899222 24.981529 0.112101 0.947429 0.299685 
21.445280 0.894089 24.888411 0.430821 0.902221 -0.019775 
21.455540 0.882108 24.784611 0.335144 0.941307 0.040238 
21.480440 0.882982 24.700769 0.416200 0.905329 0.084599 
21.497971 0.877376 24.606819 0.287572 0.932976 0.216467 
21.548010 0.900329 24.557270 0.277123 0.950916 0.137699 
21.551830 0.882654 24.444481 0.215621 0.975501 0.043653 
21.595751 0.900225 24.386539 0.192388 0.980788 0.032284 
21.591930 0.875817 24.263189 0.370111 0.927473 0.053027 
21.635151 0.892761 24.204241 0.137990 0.963993 0.227323 
21.657860 0.891664 24.117149 0.512156 0.851633 0.111432 
21.686380 0.895669 24.037991 0.152393 0.944497 0.291038 
21.730721 0.913595 23.980530 0.417056 0.879067 0.230882 
21.756390 0.915082 23.897409 0.246457 0.917346 0.312627 
21.800390 0.932695 23.839439 0.482805 0.857189 0.179240 
21.808689 0.918889 23.732401 0.317173 0.945706 0.071004 
21.838949 0.924405 23.655500 0.382891 0.923144 0.034621 
21.848721 0.911883 23.550390 0.392070 0.918574 -0.050023 
15.484290 0.056851 41.934769 0.401360 0.901711 0.160711 
15.511870 0.061168 41.860600 0.121053 0.904444 0.409057 
15.563770 0.086224 41.816090 0.083627 0.860181 0.503086 
15.620480 0.115380 41.777451 0.203484 0.896416 0.393741 
15.643690 0.115953 41.697899 0.486433 0.840317 0.239272 
15.682080 0.129480 41.636879 0.434198 0.880886 0.188445 
15.687730 0.115059 41.535801 0.574765 0.818027 -0.021846 
15.709090 0.114039 41.453899 0.257093 0.958723 0.121462 
15.732750 0.114981 41.374790 0.502539 0.864488 -0.010735 
15.738190 0.100353 41.273319 0.250027 0.961772 0.111719 
15.772170 0.110094 41.206779 0.267157 0.937030 0.224948 
15.806920 0.120486 41.141159 0.048154 0.932475 0.358012 
15.857830 0.144682 41.095360 0.159037 0.929488 0.332806 
15.894000 0.156278 41.031460 0.198235 0.967063 0.159665 
15.908390 0.149269 40.940811 0.455509 0.890172 0.010236 
15.928210 0.146897 40.856789 0.223919 0.967356 0.118671 
15.955180 0.150623 40.781521 0.463885 0.884956 0.040787 
15.966300 0.140798 40.686741 0.363455 0.912815 0.186197 
16.004721 0.154306 40.625500 0.433661 0.884308 0.173025 
16.021231 0.149073 40.537281 0.153361 0.979144 0.133256 
16.054991 0.158589 40.470268 0.396102 0.917905 0.023532 
16.057970 0.141772 40.365299 0.227008 0.956448 0.183505 
16.099930 0.158293 40.308350 0.311878 0.910125 0.272773 
16.136770 0.170428 40.245071 0.092635 0.948461 0.303052 
16.174231 0.183089 40.182541 0.432756 0.894079 0.115522 
16.186560 0.174254 40.088970 0.360674 0.929682 0.074872 
16.208080 0.173270 40.006710 0.634085 0.771485 -0.052417 
16.204769 0.151028 39.893719 0.561810 0.810273 0.166814 
16.248320 0.168884 39.838619 0.397379 0.892260 0.214388 
16.255079 0.155249 39.737999 0.328536 0.940022 0.091772 
16.294130 0.169247 39.677299 0.233186 0.963332 0.132721 
16.306299 0.160228 39.583302 0.200393 0.959062 0.200104 
16.356319 0.183613 39.536152 0.149362 0.962903 0.224743 
16.373329 0.178724 39.448078 0.282864 0.909582 0.304381 
16.424810 0.203369 39.402740 0.318517 0.914924 0.247914 
16.432529 0.190511 39.303089 0.413398 0.888945 0.197177 
16.475639 0.207969 39.247330 0.490412 0.849921 0.192691 
16.480619 0.192750 39.144192 0.559474 0.786933 0.260241 
16.524940 0.211241 39.089901 0.457980 0.826140 0.328248 
16.547470 0.211053 39.008511 0.328629 0.907485 0.261676 
16.588591 0.226799 38.950230 0.328423 0.929716 0.166634 
16.594460 0.212316 38.848042 0.252770 0.966413 0.046405 
16.630659 0.223838 38.783588 0.239328 0.970859 0.012451 
16.628031 0.202042 38.670719 0.318661 0.945616 0.065314 
16.670919 0.219294 38.614559 0.103693 0.969086 0.223876 
16.697050 0.222158 38.537472 0.208256 0.941593 0.264635 
16.743450 0.242414 38.485661 0.306252 0.932788 0.190045 
16.750561 0.228954 38.384789 0.577315 0.811475 0.090643 
16.780479 0.235058 38.312359 0.477205 0.866573 0.146037 
16.792509 0.225798 38.217541 0.510643 0.844072 0.163662 
16.834860 0.242571 38.160610 0.337869 0.898788 0.279328 
16.855709 0.240869 38.076759 0.407074 0.909915 0.079654 
16.877710 0.240163 37.994320 0.103474 0.990154 0.094276 
16.902000 0.241403 37.914711 0.141218 0.978079 0.153029 
16.948950 0.262113 37.863480 0.021830 0.985513 0.168187 
16.963579 0.255052 37.771709 0.277155 0.948608 0.152738 
17.009239 0.274644 37.718842 0.177680 0.963338 0.201024 
17.021999 0.265963 37.624660 0.587612 0.805134 -0.080442 
17.022499 0.246742 37.515041 0.429438 0.900371 0.070107 
17.051600 0.252094 37.441299 0.573800 0.818199 0.036104 
17.059450 0.239164 37.340809 0.315913 0.881441 0.351085 
17.117889 0.269731 37.303921 0.210152 0.853102 0.477549 
17.157579 0.284177 37.243450 0.094713 0.922725 0.373642 
17.201851 0.302555 37.188721 0.139989 0.926821 0.348433 
17.244631 0.319651 37.132118 0.231220 0.955558 0.182883 
17.255230 0.309065 37.034950 0.432430 0.900297 0.049687 
17.285240 0.315174 36.962212 0.289918 0.949173 0.122547 
17.302200 0.310047 36.872990 0.573137 0.816609 -0.068289 
17.302361 0.290448 36.762501 0.371333 0.926860 0.055167 
17.332359 0.296530 36.689659 0.518526 0.854934 -0.014764 
17.323839 0.269443 36.568100 0.503768 0.857605 0.103596 
17.364389 0.284590 36.508518 0.341676 0.908534 0.240466 
17.382429 0.280355 36.420460 0.235718 0.899715 0.367355 
17.446400 0.315671 36.390491 0.084003 0.912507 0.400343 
17.474649 0.320221 36.315311 -0.058781 0.959865 0.274234 
17.533100 0.350781 36.278358 0.149472 0.964463 0.217874 
17.555040 0.349886 36.195148 0.212135 0.968367 0.131393 
17.578911 0.350658 36.114361 0.441270 0.889792 0.116410 
17.607691 0.355647 36.039761 0.330936 0.934128 0.133740 
17.626030 0.351629 35.951870 0.508555 0.860123 -0.039514 
17.628380 0.333833 35.843658 0.330493 0.939950 0.085251 
17.667391 0.347621 35.781960 0.269750 0.953053 0.137565 
17.678020 0.336941 35.684170 0.275694 0.926935 0.254527 
17.732990 0.364493 35.642738 0.147664 0.941298 0.303569 
17.753639 0.362443 35.557640 0.230320 0.917497 0.324272 
17.804800 0.386699 35.511341 0.391668 0.896711 0.206169 
17.805140 0.367121 35.400311 0.429565 0.892805 0.135546 
17.849590 0.385586 35.345440 0.417089 0.896165 0.151411 
17.848881 0.365082 35.232979 0.574725 0.816882 0.048937 
17.881571 0.373391 35.163071 0.310833 0.938603 0.149687 
17.899309 0.368794 35.074051 0.327074 0.943599 0.051409 
17.928530 0.374101 34.999660 0.127473 0.988975 0.075359 
17.945471 0.368800 34.909550 0.344330 0.938729 -0.015028 
17.959681 0.361137 34.815910 0.142288 0.976513 0.161792 
18.000191 0.376174 34.755871 0.266106 0.934146 0.237820 
18.031330 0.383124 34.683842 0.279893 0.926715 0.250718 
18.061291 0.389043 34.610260 0.491253 0.845229 0.210378 
18.094151 0.397469 34.540379 0.418686 0.869403 0.262374 
18.122141 0.401672 34.464230 0.542529 0.818234 0.190145 
18.148359 0.404352 34.385792 0.272792 0.933206 0.233903 
18.183201 0.414469 34.318378 0.363873 0.924477 0.113752 
18.196699 0.406146 34.223560 0.098311 0.985012 0.141725 
18.239889 0.423478 34.166828 0.173905 0.976880 0.124350 
18.260071 0.420913 34.080521 0.108157 0.985199 0.132984 
18.293240 0.429577 34.010891 0.275919 0.944593 0.177802 
18.325970 0.437848 33.940651 0.205841 0.954687 0.214949 
18.357981 0.445497 33.869469 0.443600 0.896222 0.002396 
18.348650 0.417387 33.745049 0.366097 0.921663 0.128495 
18.392620 0.435375 33.689220 0.398826 0.909214 0.119451 
18.393570 0.416128 33.577911 0.327961 0.920963 0.210401 
18.448629 0.443705 33.536339 0.276967 0.918207 0.283169 
18.466789 0.439345 33.447170 0.315472 0.906223 0.281493 
18.516479 0.462270 33.398659 0.267338 0.934152 0.236411 
18.524349 0.448996 33.296139 0.310463 0.935286 0.169859 
18.573120 0.471116 33.246410 0.354443 0.919178 0.171701 
18.569660 0.448012 33.129162 0.541747 0.840232 -0.022813 
18.593550 0.448580 33.047211 0.320706 0.940922 0.108691 
18.614759 0.446826 32.961781 0.477547 0.876916 0.054471 
18.637171 0.446094 32.877838 0.206608 0.960412 0.186875 
18.668079 0.452736 32.804909 0.327541 0.887298 0.324682 
18.714809 0.473075 32.752449 0.166770 0.895997 0.411555 
18.751869 0.485033 32.687450 0.312650 0.874687 0.370367 
18.801109 0.507549 32.638241 0.217793 0.939047 0.266004 
18.813431 0.498055 32.541100 0.351927 0.928795 0.116139 
18.856319 0.515060 32.483620 0.265709 0.956795 0.118078 
18.856359 0.494904 32.370441 0.506842 0.861646 -0.026010 
18.879700 0.494940 32.287491 0.272102 0.943544 0.188904 
18.912571 0.503244 32.216911 0.511182 0.856755 0.068297 
18.920691 0.490066 32.114090 0.254648 0.956281 0.143810 
18.961781 0.505492 32.054161 0.351316 0.932390 0.085006 
18.965330 0.488336 31.945299 0.184501 0.970857 0.152960 
19.012369 0.508915 31.893089 0.278672 0.944375 0.174634 
19.025700 0.500233 31.796900 0.161258 0.960697 0.225960 
19.079081 0.526310 31.752930 0.168163 0.970869 0.170687 
19.092819 0.517966 31.657200 0.167115 0.973543 0.155841 
19.137840 0.536786 31.602301 0.260975 0.957064 0.126177 
19.146420 0.523952 31.499760 0.379102 0.910517 0.165050 
19.187771 0.539574 31.440029 0.387982 0.888408 0.245359 
19.206881 0.535878 31.351191 0.436944 0.888671 0.139079 
19.239479 0.543885 31.279961 0.287617 0.955144 0.070536 
19.243641 0.527184 31.171471 0.434669 0.896378 -0.087004 
19.257641 0.519017 31.075800 0.157346 0.980319 0.119230 
19.290791 0.527494 31.005211 0.230232 0.933894 0.273559 
19.338461 0.548584 30.953640 0.127990 0.952499 0.276340 
19.365749 0.551961 30.875320 0.334532 0.922584 0.192163 
19.402691 0.563720 30.809650 0.203531 0.952785 0.225334 
19.427940 0.565314 30.728609 0.379525 0.899427 0.216775 
19.471491 0.582816 30.671579 0.285246 0.920352 0.267558 
19.490410 0.578891 30.582161 0.504741 0.859234 0.083390 
19.515091 0.579967 30.500271 0.268796 0.959679 0.082253 
19.529600 0.572187 30.404961 0.584905 0.802867 -0.115289 
19.520741 0.544062 30.278820 0.391173 0.904922 0.167630 
19.573500 0.569566 30.233829 0.274246 0.927977 0.252284 
19.586519 0.560462 30.136419 0.276419 0.881915 0.381862 
19.649401 0.594778 30.104771 0.115954 0.875661 0.468800 
19.686081 0.606274 30.038549 0.255660 0.932794 0.254034 
19.715250 0.611224 29.962379 0.487540 0.870400 0.068619 
19.721340 0.596066 29.855690 0.379275 0.886447 0.265257 
19.772461 0.620123 29.808479 0.460655 0.853043 0.245183 
19.776501 0.603168 29.698999 0.421408 0.874844 0.238880 
19.828581 0.628059 29.653030 0.324424 0.921836 0.212054 
19.831169 0.609822 29.541540 0.376448 0.925871 0.032386 
19.863211 0.617245 29.469009 0.202739 0.974120 0.099941 
19.882339 0.613399 29.379330 0.149263 0.967892 0.202254 
19.933300 0.637311 29.331829 0.155551 0.956811 0.245593 
19.950871 0.632101 29.240030 0.303084 0.919570 0.250062 
20.004801 0.658599 29.196461 0.227485 0.952570 0.202142 
20.007271 0.640205 29.084539 0.467510 0.881092 0.071499 
20.044600 0.652216 29.018890 0.255091 0.946708 0.196652 
20.065519 0.649898 28.931400 0.518545 0.845267 0.128976 
20.096680 0.656520 28.857500 0.342576 0.912167 0.224928 
20.125210 0.660836 28.780069 0.540327 0.841129 0.023434 
20.125200 0.640241 28.664619 0.256841 0.961794 0.094792 
20.167440 0.656513 28.605391 0.257102 0.960556 0.105973 
20.178980 0.645977 28.505220 0.205621 0.959834 0.190889 
20.223881 0.664566 28.449490 0.242117 0.947481 0.208946 
20.243130 0.660752 28.359541 0.173024 0.955315 0.239660 
20.295601 0.685947 28.313881 0.303581 0.941920 0.143617 
20.296000 0.665655 28.198700 0.412605 0.894223 0.173558 
20.340790 0.684135 28.142759 0.421921 0.871905 0.248525 
20.359381 0.679723 28.051790 0.379834 0.824210 0.420004 
20.420219 0.712223 28.017290 0.403845 0.808984 0.427146 
20.430321 0.700381 27.914909 0.392516 0.910800 0.127960 
20.469950 0.714343 27.852011 0.244833 0.964274 0.101159 
20.474621 0.697733 27.742260 0.341233 0.938502 -0.052675 
20.496380 0.696055 27.655359 0.090135 0.992703 0.080098 
20.521709 0.697496 27.573210 0.411762 0.908264 0.074216 
20.548679 0.700364 27.493231 0.125475 0.973123 0.193101 
20.582010 0.708795 27.421761 0.440128 0.894610 0.077204 
20.593069 0.697729 27.320339 0.288542 0.932729 0.216242 
20.639120 0.717278 27.265909 0.458743 0.871547 0.173090 
20.648920 0.705097 27.162720 0.290419 0.906756 0.305695 
20.706289 0.734555 27.123501 0.398112 0.885913 0.238043 
20.708910 0.716071 27.010559 0.306440 0.949138 0.072332 
20.749640 0.730953 26.948910 0.270082 0.961875 0.043029 
20.747570 0.708346 26.829559 0.286343 0.945571 0.154609 
20.801979 0.735196 26.786289 0.149426 0.957925 0.245054 
20.820511 0.730619 26.694630 0.336678 0.917389 0.212239 
20.862970 0.747004 26.635229 0.230210 0.940627 0.249447 
20.889170 0.749127 26.553850 0.429467 0.875923 0.219811 
20.926500 0.761008 26.487490 0.411760 0.884365 0.219890 
20.940720 0.752634 26.389879 0.556454 0.819469 0.137221 
20.980240 0.766424 26.326429 0.248246 0.933380 0.259183 
21.004450 0.766783 26.242241 0.355407 0.924663 0.136688 
21.038570 0.775837 26.171450 0.228335 0.966269 0.119114 
21.055031 0.769392 26.076710 0.329001 0.939620 0.094191 
21.088961 0.778260 26.005590 0.081892 0.962481 0.258697 
21.127480 0.791158 25.940689 0.350687 0.920856 0.170420 
21.150440 0.790401 25.854660 0.160215 0.973293 0.164415 
21.182020 0.797193 25.780291 0.457407 0.881495 0.117237 
21.203630 0.795236 25.692360 0.228532 0.920053 0.318239 
21.254959 0.819361 25.644779 0.443629 0.864461 0.236432 
21.262590 0.805123 25.537790 0.415067 0.899777 0.134615 
21.300880 0.817789 25.472441 0.344473 0.933084 0.103407 
21.307640 0.802769 25.364180 0.425151 0.904497 -0.033633 
21.329430 0.800937 25.276310 0.305224 0.951684 0.033696 
21.343861 0.792636 25.178391 0.309831 0.936288 0.165436 
21.389860 0.812060 25.123440 0.016515 0.921515 0.387991 
21.433590 0.829486 25.065390 0.106277 0.840478 0.531321 
21.495890 0.863230 25.032669 0.234240 0.890849 0.389256 
21.513229 0.857463 24.938601 0.538228 0.842349 0.027545 
21.531540 0.852542 24.845810 0.393722 0.916164 0.075012 
21.552799 0.850210 24.757021 0.453195 0.885006 0.106673 
21.581881 0.854736 24.678850 0.244096 0.942192 0.229548 
21.613831 0.861788 24.604601 0.426780 0.889967 0.160676 
21.641159 0.864778 24.524010 0.209540 0.964716 0.159423 
21.668570 0.867817 24.443480 0.471903 0.881171 -0.029072 
21.664749 0.843386 24.320141 0.245563 0.962977 0.111237 
21.713240 0.864971 24.268440 0.288248 0.948075 0.134411 
21.717091 0.847267 24.155510 0.326510 0.929318 0.172508 
21.770081 0.872803 24.109940 0.284645 0.929534 0.234400 
21.779329 0.859838 24.004330 0.522661 0.828666 0.200343 
21.823071 0.877223 23.946030 0.342076 0.874178 0.344669 
21.850929 0.880625 23.865900 0.466809 0.844930 0.261118 
21.892660 0.896241 23.804819 0.241711 0.949594 0.199618 
21.908001 0.888610 23.707430 0.397964 0.917113 0.022972 
21.930500 0.887273 23.619829 0.111272 0.986093 0.123446 
21.971121 0.901899 23.557159 0.135493 0.984684 0.109720 
15.599390 0.043003 41.931381 0.150286 0.940096 0.305996 
15.629040 0.049073 41.859741 0.169982 0.873213 0.456734 
15.681230 0.074380 41.815601 0.278084 0.911177 0.304017 
15.693900 0.065944 41.723179 0.500671 0.827623 0.253709 
15.737680 0.084074 41.668758 0.585499 0.780450 0.219292 
15.741190 0.067804 41.565071 0.640696 0.752085 0.154522 
15.780720 0.082291 41.505409 0.490068 0.840029 0.232776 
15.785190 0.066826 41.402809 0.480940 0.870896 0.101181 
15.823520 0.080281 41.341629 0.164758 0.967578 0.191435 
15.844050 0.078521 41.258629 0.256930 0.945792 0.198659 
15.886380 0.095392 41.202332 0.089580 0.943266 0.319725 
15.919670 0.104537 41.134941 0.275380 0.898174 0.342710 
15.966820 0.125517 41.084530 0.324175 0.915538 0.238119 
15.975810 0.113882 40.987270 0.425346 0.899386 0.100926 
16.011629 0.125176 40.922920 0.338315 0.933036 0.122421 
16.016460 0.109963 40.820461 0.565085 0.824600 -0.026725 
16.035061 0.106512 40.734871 0.327057 0.931412 0.159702 
16.064131 0.112017 40.662140 0.271768 0.915867 0.295515 
16.115141 0.136293 40.616409 0.217922 0.953076 0.210135 
16.117640 0.119060 40.510929 0.272734 0.958075 0.087799 
16.168060 0.142825 40.464439 0.074593 0.989195 0.126209 
16.171419 0.126307 40.359921 0.197695 0.970207 0.140054 
16.224119 0.152022 40.316238 0.147542 0.967879 0.203570 
16.234940 0.141880 40.220860 0.473018 0.876844 0.086017 
16.269409 0.151982 40.154640 0.445364 0.891910 0.078407 
16.265280 0.129022 40.040699 0.672124 0.722173 -0.163449 
16.262650 0.107336 39.928551 0.376703 0.900136 0.218747 
16.314289 0.132119 39.883469 0.387935 0.879235 0.276501 
16.331110 0.127088 39.795311 0.169903 0.972892 0.156890 
16.366180 0.137674 39.729710 0.179943 0.974368 0.135011 
16.393400 0.141537 39.654362 0.011178 0.981020 0.193584 
16.435410 0.158067 39.597321 0.243725 0.965197 0.094831 
16.446911 0.148444 39.502441 0.125605 0.972666 0.195305 
16.496260 0.171262 39.454479 0.363338 0.925207 0.109440 
16.500601 0.155493 39.350639 0.357790 0.928957 0.094998 
16.531050 0.162102 39.279179 0.592084 0.804769 0.042244 
16.535440 0.146355 39.175308 0.448674 0.852203 0.269152 
16.584480 0.168898 39.126911 0.417846 0.832487 0.363827 
16.608299 0.169803 39.047131 0.289147 0.881990 0.372140 
16.660660 0.195190 39.002838 0.214296 0.918966 0.331026 
16.687380 0.198579 38.926640 0.167276 0.979086 0.115796 
16.710039 0.198477 38.845341 0.387010 0.920852 -0.047479 
16.712160 0.180743 38.738411 0.129895 0.988697 0.074874 
16.754801 0.197774 38.681961 0.197129 0.972410 0.124738 
16.771940 0.192915 38.593681 0.263818 0.946221 0.187258 
16.811060 0.206930 38.532822 0.434023 0.896730 0.086595 
16.806511 0.183434 38.417381 0.346451 0.932894 0.098386 
16.849640 0.200875 38.361469 0.338523 0.938106 0.073207 
16.847231 0.179197 38.248611 0.465494 0.870354 0.160623 
16.889160 0.195607 38.191158 0.305511 0.897294 0.318631 
16.919760 0.202278 38.119530 0.204857 0.923841 0.323343 
16.974621 0.229783 38.078239 0.219736 0.946323 0.237043 
16.980459 0.215174 37.975559 0.138202 0.970729 0.196435 
17.038059 0.245038 37.937698 0.309036 0.935072 0.173598 
17.036200 0.223788 37.825272 0.344957 0.922068 0.175488 
17.085171 0.246230 37.776569 0.365761 0.908080 0.203983 
17.085520 0.226865 37.666828 0.437002 0.899460 -0.001040 
17.115690 0.233131 37.594479 0.246731 0.968970 0.014866 
17.113590 0.211644 37.481560 0.444041 0.894238 -0.056264 
17.136721 0.211848 37.400311 0.117063 0.966276 0.229363 
17.177950 0.227618 37.341789 0.121491 0.903500 0.411009 
17.233459 0.255667 37.301231 0.077874 0.914576 0.396846 
17.266060 0.264006 37.231831 0.228300 0.900284 0.370631 
17.316469 0.287672 37.184860 0.373963 0.899331 0.226618 
17.319189 0.270284 37.077770 0.483233 0.870171 0.096376 
17.354259 0.280738 37.011421 0.488479 0.865590 0.110194 
17.354469 0.261179 36.901081 0.581581 0.813483 -0.002863 
17.381260 0.264496 36.824230 0.297863 0.950378 0.089776 
17.393869 0.255588 36.729420 0.575750 0.808061 -0.124699 
17.387621 0.230430 36.610741 0.283236 0.951868 0.117154 
17.434851 0.251340 36.559639 0.267973 0.944189 0.191564 
17.453640 0.247732 36.472530 0.094312 0.932086 0.349744 
17.515730 0.281438 36.440201 -0.068517 0.861321 0.503420 
17.577221 0.314626 36.407131 0.110421 0.933530 0.341071 
17.592430 0.307935 36.315449 0.407463 0.893363 0.189410 
17.635380 0.325141 36.258881 0.325122 0.927880 0.182575 
17.642759 0.311676 36.157181 0.494294 0.864764 0.088638 
17.674160 0.318922 36.085930 0.370104 0.912085 0.176421 
17.695379 0.317382 36.001720 0.532991 0.846120 -0.001353 
17.704559 0.305450 35.902180 0.180828 0.976479 0.117434 
17.742990 0.318746 35.839779 0.246996 0.965890 0.077781 
17.755610 0.309761 35.744530 0.058680 0.977966 0.200347 
17.809870 0.336705 35.702221 0.184376 0.963458 0.194304 
17.830370 0.334518 35.616951 0.190086 0.955584 0.225225 
17.872210 0.350742 35.558819 0.421779 0.899472 0.114247 
17.877350 0.335284 35.453911 0.365457 0.926794 0.086572 
17.907450 0.341364 35.380772 0.536300 0.843170 0.038037 
17.910851 0.324380 35.273540 0.472890 0.865196 0.166764 
17.955200 0.342754 35.218521 0.343138 0.905202 0.250729 
17.969200 0.334913 35.124748 0.294949 0.941588 0.162532 
18.010441 0.350599 35.065731 0.198899 0.972322 0.122596 
18.017670 0.336895 34.963230 0.154879 0.986292 0.056928 
18.062389 0.355576 34.908630 0.082656 0.994415 0.065626 
18.069361 0.341639 34.805721 0.317371 0.942162 0.107732 
18.111370 0.357967 34.747601 0.309552 0.937622 0.158248 
18.119770 0.345252 34.646439 0.569848 0.816506 0.092684 
18.147980 0.349647 34.570610 0.430578 0.874555 0.223062 
18.173040 0.351315 34.490711 0.422254 0.859583 0.287782 
18.218250 0.370400 34.436630 0.185947 0.926761 0.326401 
18.246031 0.374413 34.360180 0.195962 0.938214 0.285224 
18.303499 0.404100 34.321831 0.102634 0.962067 0.252773 
18.314529 0.393617 34.223831 0.279424 0.952612 0.120218 
18.358061 0.411246 34.167549 0.291157 0.946708 0.137738 
18.363211 0.395663 34.061920 0.427413 0.898659 0.098642 
18.398600 0.406237 33.995129 0.296559 0.929879 0.217663 
18.421841 0.406294 33.912689 0.490693 0.870713 0.032849 
18.437510 0.399789 33.820450 0.218903 0.971114 0.094968 
18.466160 0.404516 33.744911 0.383751 0.923019 0.027753 
18.475710 0.392696 33.644711 0.186431 0.977451 0.099158 
18.508421 0.400922 33.574329 0.318835 0.939856 0.122534 
18.528740 0.398425 33.487961 0.127809 0.946803 0.295345 
18.586210 0.428097 33.449520 0.273635 0.949398 0.154164 
18.590790 0.411940 33.342739 0.270655 0.952125 0.142143 
18.630751 0.426444 33.281670 0.463535 0.882099 0.083886 
18.637960 0.412556 33.178211 0.422982 0.900000 0.105293 
18.675560 0.424998 33.114021 0.359493 0.926926 0.107577 
18.675880 0.405120 33.001549 0.413058 0.899581 0.141905 
18.724951 0.427501 32.952179 0.227942 0.945585 0.232190 
18.734850 0.415913 32.852032 0.278202 0.927675 0.249042 
18.788651 0.442385 32.808762 0.195001 0.924712 0.326928 
18.808689 0.439583 32.721699 0.266427 0.882443 0.387699 
18.870541 0.473042 32.688881 0.232012 0.921055 0.312775 
18.878010 0.459323 32.585442 0.337300 0.926005 0.169540 
18.920650 0.476108 32.527649 0.419095 0.900666 0.114719 
18.920650 0.455896 32.414429 0.543121 0.838058 0.051756 
18.954670 0.465189 32.345379 0.427078 0.886291 0.179146 
18.967150 0.455791 32.248291 0.527380 0.840566 0.123769 
19.003031 0.466690 32.181610 0.225852 0.947558 0.226110 
19.027269 0.467484 32.099758 0.439508 0.891027 0.113591 
19.056170 0.472323 32.023949 0.161642 0.972092 0.170027 
19.082411 0.474838 31.944639 0.201784 0.958282 0.202433 
19.129351 0.495336 31.892321 0.051924 0.967093 0.249070 
19.156349 0.498514 31.813971 0.305703 0.946666 0.101827 
19.181770 0.500303 31.733509 0.149043 0.980599 0.127324 
19.208570 0.503293 31.654831 0.542371 0.839853 -0.021919 
19.210899 0.485012 31.544140 0.439449 0.886473 0.145088 
19.248770 0.497602 31.479860 0.441720 0.868335 0.225562 
19.270849 0.496474 31.394920 0.234370 0.934285 0.268669 
19.319611 0.518530 31.344870 0.286435 0.948940 0.132166 
19.321360 0.499710 31.233231 0.210794 0.977499 0.007903 
19.357220 0.510542 31.166241 0.177162 0.983169 0.044635 
19.368610 0.500093 31.067150 0.220044 0.961803 0.162835 
19.413389 0.518673 31.011810 0.250574 0.946071 0.205334 
19.430140 0.512874 30.919689 0.249897 0.946684 0.203325 
19.475340 0.531813 30.864870 0.323772 0.932719 0.158765 
19.484329 0.519244 30.762470 0.513221 0.826041 0.232938 
19.528030 0.536884 30.705669 0.447391 0.832587 0.326559 
19.550850 0.536336 30.621370 0.393018 0.879716 0.267651 
19.595520 0.554806 30.565809 0.369109 0.914519 0.165571 
19.594761 0.533722 30.450420 0.560614 0.817431 -0.132357 
19.600170 0.517990 30.343081 0.183499 0.976330 0.114492 
19.640459 0.532641 30.281679 0.343089 0.929047 0.138428 
19.658979 0.528315 30.191540 0.116222 0.938548 0.324992 
19.717421 0.558766 30.154039 0.176465 0.895600 0.408363 
19.752340 0.568729 30.085510 0.236841 0.938091 0.252767 
19.783010 0.574980 30.011351 0.522674 0.851335 0.045169 
19.793030 0.563223 29.909861 0.418802 0.888820 0.186020 
19.829729 0.574717 29.843599 0.514304 0.835701 0.192602 
19.847860 0.570018 29.752760 0.240862 0.930706 0.275266 
19.895149 0.590749 29.700491 0.285303 0.932196 0.222739 
19.913271 0.586031 29.609570 0.122986 0.985155 0.119765 
19.952120 0.599389 29.546089 0.212055 0.975255 0.062531 
19.962660 0.588042 29.445049 0.130051 0.981173 0.142783 
20.007980 0.607035 29.390091 0.208119 0.964784 0.160869 
20.027451 0.603475 29.300840 0.189145 0.950187 0.247728 
20.076000 0.625285 29.250151 0.347994 0.920582 0.177282 
20.081579 0.609579 29.142370 0.306427 0.946237 0.103623 
20.120380 0.622872 29.078699 0.345760 0.933032 0.099506 
20.124149 0.605575 28.968420 0.576645 0.809901 0.107433 
20.160339 0.616579 28.901230 0.422428 0.868939 0.257876 
20.181650 0.614586 28.814211 0.466987 0.867863 0.169523 
20.220131 0.627580 28.750010 0.142030 0.969167 0.201353 
20.242050 0.626103 28.663731 0.310716 0.949179 0.050146 
20.264420 0.625010 28.578011 0.042179 0.986439 0.158613 
20.307289 0.641830 28.519609 0.153254 0.975839 0.155729 
20.334860 0.645282 28.440790 0.170145 0.975973 0.136114 
20.360620 0.647142 28.359520 0.494975 0.868872 0.007775 
20.368990 0.633789 28.254980 0.397018 0.912668 0.097020 
20.399240 0.639562 28.179630 0.551096 0.828650 0.098143 
20.408220 0.626730 28.075821 0.507496 0.736442 0.447326 
20.468849 0.659058 28.041050 0.400010 0.744133 0.535031 
20.497379 0.663305 27.963320 0.185898 0.932342 0.310129 
20.542931 0.682451 27.908381 0.235793 0.959477 0.154293 
20.557051 0.674088 27.811310 0.134221 0.988409 0.070937 
20.595341 0.686864 27.746590 0.256864 0.966226 -0.020679 
20.586451 0.658350 27.618570 0.276783 0.958240 0.071882 
20.637060 0.681905 27.570339 0.151436 0.976477 0.153491 
20.647270 0.670088 27.467850 0.447885 0.892440 0.054310 
20.680250 0.678199 27.395889 0.289952 0.947158 0.137187 
20.693890 0.669368 27.297920 0.515347 0.850872 0.102144 
20.728109 0.678555 27.227579 0.305623 0.907775 0.287295 
20.759190 0.684991 27.153000 0.374072 0.890901 0.257613 
20.799231 0.699275 27.090469 0.144879 0.970397 0.193236 
20.821951 0.698376 27.004580 0.386866 0.922023 0.014403 
20.837830 0.691470 26.909430 0.083479 0.988265 0.127920 
20.877211 0.705165 26.845940 0.260199 0.957982 0.120697 
20.896740 0.701451 26.755650 0.179147 0.963566 0.198612 
20.942110 0.720382 26.700190 0.364164 0.922896 0.125091 
20.943230 0.700514 26.584970 0.420321 0.885255 0.199133 
20.991560 0.722032 26.533470 0.421877 0.885848 0.193113 
20.994930 0.704121 26.421200 0.504535 0.827634 0.245901 
21.045099 0.727245 26.372150 0.305030 0.876699 0.371961 
21.070030 0.728233 26.288960 0.448317 0.865181 0.224663 
21.105539 0.738498 26.220060 0.355522 0.913993 0.195503 
21.124010 0.733800 26.128059 0.286662 0.938952 0.190248 
21.167200 0.750799 26.069521 0.179238 0.954513 0.238284 
21.190941 0.750718 25.984600 0.305343 0.920139 0.245173 
21.240589 0.773377 25.934790 0.285038 0.937099 0.201493 
21.243429 0.754937 25.821440 0.476572 0.877025 0.060885 
21.277081 0.763546 25.749880 0.239965 0.938689 0.247547 
21.306040 0.768022 25.671921 0.488337 0.857417 0.162368 
21.335291 0.772757 25.594330 0.176640 0.958288 0.224684 
21.372080 0.784105 25.526960 0.365943 0.928730 0.059545 
21.377741 0.768092 25.417200 0.403359 0.915031 -0.004561 
21.400970 0.767523 25.331329 0.381791 0.923902 0.025333 
21.414030 0.757998 25.231541 0.291981 0.925630 0.240743 
21.466471 0.783083 25.185390 0.114623 0.917561 0.380714 
21.497709 0.789534 25.110340 0.180617 0.864043 0.469902 
21.560520 0.823733 25.078329 0.355920 0.855294 0.376554 
21.567680 0.809003 24.970381 0.500523 0.861224 0.088149 
21.600130 0.816498 24.896900 0.381889 0.920083 0.087222 
21.607059 0.801542 24.788521 0.478334 0.860565 0.174996 
21.652411 0.820385 24.732639 0.327510 0.903182 0.277488 
21.671169 0.815817 24.640341 0.431662 0.866502 0.250682 
21.717920 0.835887 24.586340 0.260246 0.932528 0.250329 
21.731661 0.826893 24.487120 0.483488 0.875346 0.003136 
21.753580 0.825096 24.399059 0.146317 0.982934 0.111498 
21.781740 0.828778 24.319510 0.366807 0.929912 0.026775 
21.795050 0.819386 24.219570 0.182222 0.975402 0.124038 
21.831390 0.830267 24.151180 0.380262 0.921155 0.082908 
21.843081 0.819429 24.048920 0.395713 0.899242 0.186483 
21.884859 0.835095 23.987961 0.336991 0.898029 0.282808 
21.910839 0.836827 23.905251 0.325717 0.871933 0.365571 
21.965441 0.863786 23.861891 0.238110 0.917108 0.319713 
21.981489 0.856765 23.765490 0.231898 0.959592 0.159398 
22.028299 0.876848 23.711370 0.164422 0.971097 0.173022 
22.042120 0.867847 23.611830 0.433048 0.901152 -0.019852 
15.700700 0.017413 41.911209 -0.057881 0.857078 0.511925 
15.756830 0.046093 41.871899 0.349510 0.913128 0.209857 
15.754470 0.024806 41.761139 0.569086 0.816973 0.093259 
15.784640 0.031295 41.690071 0.658228 0.747251 0.091385 
15.785260 0.012537 41.582851 0.595197 0.755574 0.273583 
15.833190 0.034204 41.533470 0.408386 0.844270 0.347029 
15.852920 0.031757 41.449551 0.255610 0.925073 0.280898 
15.903380 0.055587 41.403271 0.193387 0.953189 0.232447 
15.913260 0.044712 41.307220 0.143332 0.967340 0.209069 
15.970520 0.074352 41.269260 0.199339 0.956966 0.210902 
15.981130 0.064092 41.174061 0.278246 0.926085 0.254846 
16.031260 0.087625 41.127319 0.342342 0.919908 0.191237 
16.036310 0.072602 41.025230 0.369272 0.916515 0.153750 
16.077921 0.088845 40.968010 0.403152 0.909396 0.102315 
16.074940 0.066928 40.855949 0.419185 0.905820 0.061432 
16.113720 0.080744 40.795212 0.314447 0.935371 0.161878 
16.128099 0.073670 40.704430 0.256669 0.912474 0.318610 
16.184160 0.102271 40.664928 0.251887 0.921840 0.294558 
16.199800 0.096260 40.575630 0.109752 0.966488 0.232069 
16.252729 0.122180 40.532269 0.226864 0.960252 0.162631 
16.256630 0.106113 40.428452 0.173064 0.977391 0.121473 
16.299971 0.123812 40.373230 0.373418 0.924842 0.072290 
16.294029 0.099296 40.257172 0.525411 0.849328 0.050847 
16.324760 0.106187 40.186340 0.519551 0.853461 0.040887 
16.320660 0.083231 40.072441 0.595872 0.797514 -0.094376 
16.337601 0.078293 39.984501 0.293764 0.943437 0.153721 
16.365999 0.083174 39.910702 0.234571 0.899301 0.369099 
16.432730 0.120902 39.884319 0.061216 0.934604 0.350381 
16.449141 0.115491 39.795639 0.178406 0.967736 0.177929 
16.497761 0.137696 39.746830 0.168931 0.966923 0.191106 
16.506680 0.125861 39.648819 0.284399 0.950811 0.122784 
16.553619 0.146617 39.597912 0.266091 0.952315 0.149305 
16.552589 0.126226 39.487461 0.531010 0.847165 0.018426 
16.584539 0.134123 39.417919 0.332260 0.940659 0.069022 
16.583879 0.114034 39.307831 0.558663 0.826608 -0.067927 
16.600540 0.108791 39.219212 0.279360 0.939241 0.199458 
16.636881 0.120440 39.155029 0.317463 0.899894 0.299011 
16.675600 0.134128 39.093800 0.092580 0.910307 0.403448 
16.723921 0.156052 39.044498 0.189430 0.892107 0.410198 
16.769850 0.175923 38.992229 0.232715 0.948639 0.214309 
16.778351 0.163656 38.893318 0.367715 0.927861 0.062131 
16.815901 0.176329 38.830570 0.205730 0.970689 0.124254 
16.826340 0.165707 38.733990 0.497429 0.867474 -0.007239 
16.845091 0.162225 38.647739 0.266100 0.951602 0.153766 
16.875389 0.168651 38.575871 0.313756 0.940139 0.133026 
16.904539 0.174091 38.502560 0.144503 0.985107 0.093186 
16.921970 0.169452 38.414558 0.442549 0.891961 -0.092504 
16.919041 0.147304 38.301048 0.220504 0.970771 0.094769 
16.964630 0.166856 38.248199 0.205896 0.959563 0.191953 
16.984810 0.164566 38.163540 0.138678 0.942690 0.303486 
17.037630 0.190329 38.119732 0.188838 0.949452 0.250762 
17.064011 0.193355 38.042782 0.170495 0.969512 0.176006 
17.091820 0.197607 37.967602 0.523048 0.851785 0.029714 
17.100260 0.185196 37.868099 0.334403 0.917523 0.215234 
17.144720 0.203766 37.813770 0.459545 0.866738 0.193866 
17.156580 0.194277 37.718479 0.242385 0.958156 0.152273 
17.198231 0.210424 37.660580 0.299201 0.953430 0.038068 
17.191719 0.185115 37.542130 0.202885 0.979143 0.010774 
17.233669 0.201505 37.484550 0.099322 0.987402 0.123176 
17.251369 0.197023 37.396469 0.062658 0.963949 0.258604 
17.308990 0.226900 37.358589 0.117487 0.958502 0.259752 
17.331421 0.226484 37.276421 0.203826 0.941451 0.268560 
17.375420 0.244626 37.221371 0.460394 0.878673 0.126374 
17.380079 0.228894 37.116741 0.509916 0.853528 0.107127 
17.412029 0.236652 37.046459 0.577132 0.811823 0.088665 
17.416170 0.220453 36.941078 0.422314 0.891819 0.162201 
17.460871 0.239196 36.886860 0.336398 0.930698 0.143657 
17.456881 0.215966 36.771099 0.388178 0.920185 -0.050773 
17.485300 0.220672 36.696259 0.171474 0.983063 0.064687 
17.501110 0.214496 36.605450 0.243184 0.960807 0.133082 
17.543840 0.231519 36.548649 -0.003444 0.957564 0.288201 
17.581430 0.244113 36.485340 0.069106 0.878071 0.473514 
17.645321 0.279383 36.455330 0.253473 0.901956 0.349609 
17.655510 0.268342 36.357288 0.397595 0.891327 0.217839 
17.699560 0.286500 36.302132 0.423866 0.886382 0.186186 
17.702789 0.269436 36.195179 0.514181 0.845695 0.142891 
17.743380 0.284606 36.135601 0.423202 0.883942 0.198861 
17.748560 0.269209 36.031029 0.350732 0.916161 0.193999 
17.807930 0.300576 35.995270 0.050353 0.964326 0.259885 
17.819620 0.290795 35.898918 0.153750 0.981058 0.117836 
17.870661 0.314967 35.852551 0.111597 0.983548 0.142056 
17.876030 0.299707 35.748081 0.343223 0.937477 0.057745 
17.911610 0.310529 35.682011 0.237323 0.958020 0.160859 
17.931141 0.307489 35.595490 0.496828 0.865491 0.063932 
17.954399 0.307654 35.513680 0.336095 0.938907 0.074118 
17.968580 0.299978 35.420261 0.548021 0.832504 -0.081302 
17.967400 0.279023 35.307209 0.311317 0.931789 0.186684 
18.017151 0.302066 35.259102 0.263365 0.930727 0.253744 
18.042780 0.304258 35.180180 0.084900 0.959328 0.269223 
18.094400 0.328909 35.134441 0.141753 0.960591 0.239106 
18.124161 0.334670 35.060768 0.112571 0.983993 0.138152 
18.150290 0.337287 34.982430 0.478835 0.875389 -0.066416 
18.141840 0.309998 34.859810 0.321311 0.945575 0.051442 
18.177931 0.321207 34.794140 0.442674 0.895637 0.043286 
18.176611 0.300060 34.680519 0.394462 0.906794 0.148743 
18.224859 0.321783 34.630390 0.254141 0.943627 0.212086 
18.235870 0.311293 34.532501 0.287417 0.908541 0.303225 
18.296789 0.343978 34.498600 0.176189 0.913453 0.366827 
18.314409 0.339187 34.409119 0.137000 0.932269 0.334823 
18.375870 0.372338 34.375919 0.233299 0.938827 0.253329 
18.383301 0.358724 34.273312 0.283453 0.952362 0.112525 
18.418390 0.369046 34.206200 0.385551 0.919998 0.070384 
18.426010 0.355573 34.103729 0.400528 0.901841 0.162049 
18.469490 0.373153 34.047379 0.386705 0.894948 0.222547 
18.481970 0.363878 33.951092 0.531561 0.836155 0.135233 
18.518499 0.375427 33.885738 0.269065 0.943587 0.192998 
18.533480 0.368307 33.792610 0.320892 0.938776 0.125408 
18.575199 0.384340 33.733898 0.102713 0.980922 0.165050 
18.593050 0.379692 33.644390 0.147440 0.979777 0.135271 
18.639330 0.399685 33.591560 0.131559 0.976630 0.169961 
18.651699 0.390272 33.494911 0.387474 0.916916 0.095546 
18.690660 0.403909 33.432579 0.258732 0.960080 0.106317 
18.692640 0.385472 33.322411 0.587697 0.802293 -0.104584 
18.699499 0.371266 33.218521 0.321327 0.933823 0.157239 
18.741489 0.387512 33.160030 0.404678 0.911577 0.072551 
18.738300 0.364569 33.043030 0.237068 0.953124 0.188027 
18.793619 0.392372 33.001759 0.240969 0.952072 0.188397 
18.805719 0.382679 32.904480 0.127687 0.963875 0.233753 
18.860291 0.409832 32.862240 0.198498 0.955107 0.219928 
18.879419 0.406222 32.774010 0.089220 0.940492 0.327895 
18.940029 0.438613 32.739590 0.211112 0.944590 0.251359 
18.955490 0.431809 32.646549 0.215320 0.970777 0.105965 
18.985910 0.437997 32.572910 0.498404 0.865778 -0.044975 
18.974119 0.407514 32.444359 0.497197 0.862722 0.092227 
19.013981 0.421883 32.382919 0.421752 0.890276 0.171853 
19.025370 0.411516 32.284420 0.408664 0.875848 0.256680 
19.076830 0.435944 32.238029 0.330084 0.900848 0.281990 
19.084970 0.422746 32.135231 0.335812 0.915214 0.222741 
19.138981 0.449389 32.092159 0.158370 0.953712 0.255640 
19.154011 0.442160 31.998249 0.211781 0.946642 0.242934 
19.206760 0.467712 31.953541 0.192797 0.943427 0.269769 
19.224230 0.462594 31.862761 0.274900 0.942202 0.191533 
19.270679 0.482662 31.809790 0.365575 0.925043 0.103203 
19.257521 0.450899 31.678921 0.633350 0.769933 -0.077914 
19.279169 0.449391 31.593479 0.383509 0.909153 0.162361 
19.307610 0.453785 31.516899 0.390011 0.876256 0.282961 
19.351259 0.471407 31.460190 0.118922 0.926710 0.356464 
19.386280 0.481511 31.392170 0.312129 0.928031 0.203309 
19.419519 0.490069 31.321800 0.190324 0.975771 0.107923 
19.433710 0.482042 31.226440 0.398531 0.916417 -0.036775 
19.446079 0.472433 31.128660 0.133221 0.984285 0.115915 
19.485279 0.486162 31.066031 0.158211 0.973761 0.163582 
19.516359 0.492812 30.992710 0.135928 0.980645 0.140923 
19.541870 0.494619 30.912069 0.469202 0.882655 -0.027751 
19.540899 0.473352 30.796591 0.418724 0.889762 0.181645 
19.586540 0.492684 30.742350 0.360810 0.884857 0.294695 
19.610661 0.493257 30.659769 0.382912 0.862850 0.329952 
19.656700 0.512926 30.606030 0.381649 0.901089 0.205871 
19.660089 0.495428 30.496099 0.256094 0.966320 0.025322 
19.699430 0.509252 30.433491 0.108000 0.993054 0.046678 
19.705641 0.494186 30.327181 0.273877 0.959668 0.063466 
19.747030 0.509788 30.267229 0.011136 0.973091 0.230152 
19.779030 0.517202 30.194870 0.160715 0.931185 0.327207 
19.835649 0.546078 30.155010 0.286846 0.933673 0.214415 
19.833250 0.523487 30.037180 0.606124 0.794928 -0.026496 
19.855350 0.522252 29.951670 0.358307 0.916546 0.177652 
19.885420 0.527956 29.876650 0.383347 0.893027 0.235689 
19.923531 0.540676 29.812250 0.153713 0.929424 0.335474 
19.964560 0.555943 29.751711 0.228991 0.911739 0.341022 
20.009979 0.575038 29.696970 0.115636 0.966588 0.228769 
20.027300 0.569602 29.604980 0.228234 0.970813 0.073696 
20.061890 0.579236 29.535851 0.070464 0.991827 0.106364 
20.082439 0.576616 29.448090 0.295108 0.955163 0.023986 
20.102030 0.573139 29.358999 0.187525 0.969153 0.159930 
20.139009 0.584851 29.292980 0.405226 0.905679 0.124654 
20.158010 0.580850 29.203039 0.201953 0.970695 0.130254 
20.189890 0.588098 29.130190 0.497821 0.866152 -0.044218 
20.176460 0.555753 28.997049 0.423631 0.896078 0.132595 
20.223820 0.576504 28.944710 0.347594 0.910089 0.225648 
20.239990 0.570008 28.850861 0.273963 0.910189 0.310646 
20.299280 0.601190 28.814400 0.117645 0.944227 0.307563 
20.318630 0.597453 28.724720 0.095692 0.980979 0.168889 
20.370770 0.622389 28.678730 0.159487 0.978010 0.134389 
20.378811 0.608752 28.573900 0.320632 0.942798 0.091255 
20.416719 0.621234 28.508890 0.302140 0.948518 0.095005 
20.422220 0.605364 28.400579 0.522620 0.851347 -0.045569 
20.438850 0.599223 28.307091 0.380446 0.923213 0.054215 
20.458509 0.595716 28.217600 0.567515 0.822674 -0.033687 
20.460470 0.576722 28.104401 0.329597 0.873906 0.357286 
20.522320 0.610130 28.071280 0.057870 0.807420 0.587133 
20.582710 0.642262 28.036230 0.047042 0.889434 0.454637 
20.618610 0.652961 27.968390 0.274978 0.930939 0.240290 
20.654360 0.663519 27.900320 0.163495 0.977686 0.131908 
20.668449 0.655110 27.803190 0.408622 0.910116 -0.068685 
20.678181 0.642875 27.700171 0.144778 0.986299 0.079077 
20.714840 0.654211 27.633230 0.357042 0.934015 0.011715 
20.709740 0.628964 27.510189 0.327998 0.942084 0.069958 
20.751419 0.644694 27.449949 0.272839 0.958349 0.084414 
20.754910 0.626955 27.338350 0.354941 0.932136 0.071697 
20.789780 0.636710 27.268900 0.221994 0.941959 0.251857 
20.828461 0.649798 27.204559 0.163094 0.919993 0.356390 
20.878260 0.672629 27.155170 0.256838 0.934846 0.245149 
20.891750 0.663633 27.056881 0.258614 0.954759 0.146813 
20.938950 0.684183 27.003969 0.143540 0.977772 0.152831 
20.948549 0.671757 26.900351 0.362057 0.931497 0.035043 
20.978230 0.676929 26.823759 0.218697 0.964640 0.147111 
21.002439 0.677306 26.739771 0.457339 0.888548 0.036384 
21.018330 0.670368 26.644501 0.229035 0.964571 0.130942 
21.051510 0.678604 26.572571 0.501943 0.864567 0.024032 
21.052240 0.658348 26.456720 0.307188 0.917549 0.252467 
21.108749 0.687047 26.416281 0.296709 0.910002 0.289587 
21.125031 0.680426 26.321381 0.352892 0.890164 0.288227 
21.177771 0.705818 26.275829 0.219884 0.934313 0.280553 
21.196329 0.701182 26.183950 0.249266 0.937675 0.242141 
21.245899 0.723785 26.134090 0.305370 0.926506 0.219855 
21.254200 0.710134 26.028250 0.362248 0.897680 0.250893 
21.304119 0.733035 25.978830 0.413026 0.881358 0.229385 
21.310431 0.717615 25.870190 0.378733 0.910257 0.167314 
21.356409 0.737055 25.815399 0.269858 0.935758 0.227010 
21.370430 0.728400 25.717159 0.304395 0.924987 0.227470 
21.423809 0.754334 25.672390 0.210992 0.933589 0.289645 
21.441980 0.749308 25.579710 0.490062 0.871670 0.005657 
21.455050 0.739797 25.480061 0.263591 0.964478 0.017357 
21.475750 0.736981 25.390751 0.377026 0.924565 -0.055053 
21.478239 0.718154 25.276590 0.340410 0.920391 0.192359 
21.541700 0.752939 25.245489 0.305899 0.927197 0.216176 
21.561621 0.749416 25.155001 0.162054 0.922077 0.351443 
21.617809 0.777810 25.113991 0.327381 0.903980 0.275030 
21.638519 0.774977 25.024540 0.184670 0.969864 0.158937 
21.676130 0.787014 24.958130 0.372586 0.927994 -0.002542 
21.669710 0.760288 24.831530 0.326844 0.935374 0.135084 
21.717260 0.781062 24.778650 0.333423 0.922866 0.192737 
21.730370 0.771513 24.678650 0.255642 0.918340 0.302157 
21.789671 0.802635 24.641840 0.199108 0.948769 0.245342 
21.797470 0.788387 24.534491 0.277807 0.950717 0.137694 
21.847820 0.811625 24.485411 0.203621 0.964490 0.168221 
21.856730 0.798349 24.379499 0.305897 0.949475 0.070174 
21.895479 0.811351 24.314470 0.243441 0.964015 0.106828 
21.906780 0.800163 24.211750 0.441403 0.894335 -0.072996 
21.910561 0.782337 24.098650 0.419103 0.904875 0.074527 
21.954220 0.799659 24.040291 0.326062 0.936692 0.127641 
21.970539 0.792873 23.944330 0.190192 0.920921 0.340194 
22.034109 0.827737 23.913300 0.244002 0.911308 0.331635 
22.056030 0.825874 23.824989 0.207311 0.945812 0.249923 
22.101351 0.844647 23.768850 0.374315 0.908738 0.184617 
22.115891 0.836267 23.670309 0.276927 0.945074 0.173626 
22.168011 0.861037 23.623520 0.200869 0.898653 0.389968 
15.778060 -0.009338 41.969650 0.148955 0.933404 0.326450 
15.813240 0.001443 41.904770 0.519979 0.852149 0.058855 
15.812610 -0.018392 41.796120 0.492628 0.868723 0.051356 
15.841040 -0.013393 41.722939 0.533771 0.845132 0.029008 
15.841110 -0.032647 41.615040 0.342664 0.902993 0.259201 
15.896670 -0.004455 41.575020 0.204906 0.916774 0.342839 
15.920730 -0.003205 41.496422 0.099664 0.937212 0.334216 
15.978880 0.027209 41.459579 0.094720 0.947802 0.304467 
16.008829 0.033490 41.388161 0.126516 0.976395 0.175064 
16.035950 0.037349 41.313259 0.323707 0.936582 0.134264 
16.064640 0.042546 41.240250 0.196456 0.956786 0.214394 
16.097620 0.051413 41.172501 0.439908 0.889919 0.120524 
16.113590 0.045712 41.083820 0.275839 0.950868 0.140580 
16.144720 0.052984 41.013741 0.442232 0.896038 0.039337 
16.149630 0.037798 40.911400 0.313920 0.947991 0.052606 
16.177931 0.042641 40.837780 0.412785 0.903332 0.116619 
16.200541 0.042600 40.757141 0.178888 0.932986 0.312307 
16.248859 0.064574 40.708118 0.258151 0.908209 0.329416 
16.281071 0.072755 40.639271 0.118353 0.948738 0.293068 
16.319950 0.086639 40.578609 0.290949 0.940907 0.173327 
16.342331 0.086390 40.497589 0.244561 0.965444 0.090041 
16.362301 0.084059 40.413559 0.579137 0.812252 -0.069621 
16.360090 0.062719 40.302109 0.359685 0.930934 0.063152 
16.395250 0.073405 40.236771 0.473061 0.880994 -0.007931 
16.382191 0.042738 40.111801 0.443527 0.896250 0.004476 
16.418209 0.054145 40.047470 0.275524 0.951274 0.138435 
16.432631 0.047029 39.956390 0.194087 0.890952 0.410530 
16.502270 0.087272 39.933640 0.212699 0.875330 0.434230 
16.517269 0.080640 39.843220 0.208367 0.942261 0.262159 
16.567671 0.104379 39.796650 0.296480 0.937468 0.182355 
16.574301 0.090550 39.695789 0.307034 0.937626 0.163058 
16.615240 0.106165 39.637459 0.463008 0.881090 0.096463 
16.614361 0.085884 39.527210 0.382079 0.915571 0.125484 
16.657551 0.103421 39.471630 0.375302 0.920767 0.106474 
16.655319 0.081963 39.359612 0.433169 0.900927 0.026347 
16.690170 0.092333 39.293621 0.240833 0.954738 0.174568 
16.709591 0.089443 39.208420 0.254845 0.929862 0.265350 
16.760780 0.113837 39.162720 0.186183 0.918176 0.349699 
16.783569 0.113838 39.081680 0.218357 0.899485 0.378478 
16.843201 0.145488 39.046490 0.260479 0.933187 0.247613 
16.844030 0.126606 38.938019 0.389276 0.911075 0.135671 
16.886959 0.143901 38.882000 0.458656 0.877947 0.137272 
16.883680 0.121473 38.768318 0.510094 0.850299 0.129596 
16.929430 0.141181 38.715778 0.313942 0.907749 0.278266 
16.945829 0.135657 38.626579 0.374294 0.900463 0.221518 
16.990170 0.154153 38.572262 0.284422 0.940383 0.186506 
16.993280 0.137187 38.466381 0.403668 0.914134 -0.037568 
17.017410 0.138293 38.386742 0.122941 0.989754 0.072616 
17.037230 0.135686 38.301682 0.143684 0.973460 0.178130 
17.089520 0.161003 38.257240 0.073093 0.967231 0.243148 
17.110189 0.159116 38.173191 0.313818 0.930569 0.188574 
17.151609 0.175077 38.115108 0.258972 0.952363 0.161051 
17.157669 0.160608 38.012691 0.559937 0.827566 -0.040062 
17.176081 0.156760 37.925709 0.378061 0.915649 0.136587 
17.200211 0.157824 37.845860 0.440205 0.867856 0.230318 
17.241350 0.173537 37.787361 0.165231 0.943259 0.288028 
17.269039 0.177662 37.711948 0.331924 0.940185 0.076675 
17.288670 0.174834 37.626369 0.067155 0.995433 0.067845 
17.315411 0.178132 37.549709 0.087925 0.987386 0.131673 
