21.176121 -1.804232 42.893791 0.279269 0.955523 0.094783 
21.180201 -1.821495 42.790459 0.241884 0.957816 0.155178 
21.227280 -1.800361 42.741089 0.247972 0.958411 0.141272 
21.236389 -1.813144 42.644001 0.181502 0.956564 0.228130 
21.287830 -1.788120 42.600090 0.332617 0.925688 0.180188 
21.296579 -1.801248 42.502460 0.332085 0.909606 0.249672 
21.341669 -1.781899 42.450550 0.392516 0.879574 0.268849 
21.364740 -1.782230 42.370911 0.233998 0.918574 0.318538 
21.416050 -1.757325 42.326809 0.254250 0.923877 0.286021 
21.437220 -1.759366 42.244720 0.105631 0.979589 0.171018 
21.475611 -1.746019 42.184311 0.169040 0.975832 0.138483 
21.500111 -1.745100 42.106369 0.029920 0.987816 0.152724 
21.538731 -1.731546 42.046230 0.261348 0.960971 0.090735 
21.555220 -1.737803 41.958111 0.139748 0.984279 0.108011 
21.588209 -1.729298 41.890820 0.350077 0.936702 -0.005933 
21.586941 -1.751450 41.780182 0.254174 0.964374 0.073335 
21.627041 -1.736601 41.721809 0.269831 0.961771 0.046782 
21.630619 -1.754431 41.617222 0.235771 0.971809 0.000435 
21.660351 -1.748870 41.545681 0.235248 0.971246 0.036602 
21.672371 -1.759172 41.451679 0.210817 0.942846 0.258064 
21.724001 -1.734008 41.407860 0.199184 0.944344 0.261801 
21.747890 -1.733683 41.328861 0.032341 0.946610 0.320754 
21.804100 -1.704422 41.290840 0.258996 0.932534 0.251598 
21.822689 -1.708856 41.205059 0.248853 0.938703 0.238555 
21.864901 -1.692132 41.149269 0.458955 0.880766 0.116670 
21.869190 -1.709395 41.045250 0.446539 0.886240 0.123212 
21.906429 -1.697136 40.983089 0.509802 0.857057 0.074530 
21.900391 -1.723680 40.865841 0.498057 0.856999 0.132258 
21.948509 -1.701678 40.817471 0.316179 0.923106 0.218876 
21.950930 -1.720648 40.710899 0.306267 0.947134 0.095595 
21.992270 -1.704733 40.653870 0.122213 0.963299 0.238995 
22.019251 -1.701700 40.578522 0.136404 0.937349 0.320579 
22.072020 -1.675533 40.536049 0.230020 0.945997 0.228430 
22.082960 -1.686891 40.440201 0.395683 0.900187 0.181927 
22.123569 -1.671646 40.382179 0.479368 0.863444 0.157066 
22.126499 -1.690205 40.276020 0.470737 0.871261 0.138964 
22.171881 -1.670687 40.224049 0.277072 0.940755 0.195475 
22.180120 -1.684496 40.124599 0.322191 0.944749 0.060361 
22.218830 -1.670974 40.064060 0.117237 0.987716 0.103306 
22.227940 -1.684026 39.965630 0.230620 0.971006 0.062944 
22.266720 -1.670440 39.905159 0.040178 0.975158 0.217836 
22.297279 -1.664236 39.834141 0.267905 0.940040 0.211073 
22.334530 -1.652030 39.771679 0.362551 0.925424 0.110211 
22.335489 -1.672433 39.662640 0.672454 0.715277 -0.190221 
22.327021 -1.701323 39.541431 0.441873 0.895754 0.048720 
22.358860 -1.694002 39.471920 0.546941 0.831664 0.095872 
22.371321 -1.704100 39.377491 0.410556 0.847001 0.337687 
22.424070 -1.677985 39.334831 0.218613 0.875545 0.430847 
22.453291 -1.673033 39.261890 0.125410 0.924041 0.361138 
22.512150 -1.641425 39.227089 0.234798 0.921720 0.308711 
22.532200 -1.644722 39.142311 0.237215 0.954711 0.179597 
22.565750 -1.635886 39.074890 0.468096 0.881618 0.060306 
22.573521 -1.650238 38.974239 0.478337 0.877819 0.025059 
22.593281 -1.653816 38.888981 0.524787 0.851168 0.010579 
22.601580 -1.667718 38.788898 0.377859 0.907377 0.184090 
22.647751 -1.647541 38.737671 0.306024 0.921882 0.237661 
22.662050 -1.656056 38.645260 0.326478 0.874907 0.357700 
22.719469 -1.625763 38.608540 0.235543 0.891490 0.386994 
22.741680 -1.627163 38.526299 0.153198 0.943592 0.293539 
22.790300 -1.604792 38.478199 0.287251 0.931927 0.221360 
22.808861 -1.609486 38.391201 0.318420 0.929933 0.183938 
22.841431 -1.601571 38.322300 0.537885 0.839762 0.074027 
22.848820 -1.616353 38.220741 0.314900 0.918863 0.237757 
22.901920 -1.589951 38.178398 0.383405 0.916216 0.116399 
22.887190 -1.624681 38.048069 0.338410 0.939736 0.048730 
22.934561 -1.603452 37.998260 0.187397 0.971991 0.141830 
22.942051 -1.618170 37.896671 0.187887 0.938121 0.290908 
23.009279 -1.579036 37.872650 0.050198 0.927818 0.369641 
23.033449 -1.578733 37.792671 0.189529 0.938608 0.288261 
23.082251 -1.556222 37.744690 0.369751 0.914610 0.163624 
23.082239 -1.577725 37.633209 0.484852 0.874510 -0.012327 
23.109779 -1.574404 37.557522 0.363036 0.931261 0.030946 
23.116070 -1.590246 37.454140 0.448163 0.891968 0.059516 
23.146681 -1.584162 37.382389 0.361292 0.919172 0.156818 
23.166309 -1.587989 37.296299 0.366425 0.922556 0.120931 
23.202829 -1.576585 37.232201 0.112132 0.980968 0.158516 
23.225140 -1.578004 37.149551 0.322367 0.938829 0.121160 
23.257290 -1.570548 37.079708 0.142098 0.951611 0.272479 
23.294291 -1.558720 37.016190 0.134396 0.846769 0.514704 
23.357691 -1.523048 36.987160 0.221246 0.840316 0.494894 
23.385630 -1.519397 36.911789 0.445008 0.864752 0.232749 
23.419029 -1.510831 36.843521 0.434986 0.896690 0.082060 
23.419029 -1.532432 36.731510 0.415198 0.907974 -0.056516 
23.443729 -1.531740 36.651779 0.176525 0.983025 0.050007 
23.460730 -1.537998 36.561951 0.369639 0.929104 0.011482 
23.482870 -1.539633 36.478802 0.038754 0.978758 0.201323 
23.525820 -1.522448 36.422939 0.234574 0.951612 0.198521 
23.555639 -1.517148 36.349812 0.169015 0.962747 0.211075 
23.586910 -1.510533 36.278580 0.477307 0.873170 0.098753 
23.601669 -1.518861 36.185619 0.279152 0.926921 0.250782 
23.647289 -1.499276 36.133209 0.423979 0.872561 0.242650 
23.669710 -1.500690 36.050251 0.174874 0.967667 0.181767 
23.704769 -1.490669 35.983910 0.406141 0.913786 -0.006638 
23.698839 -1.517736 35.863579 0.227633 0.970088 0.084339 
23.743401 -1.499129 35.809689 0.241752 0.963533 0.114717 
23.755211 -1.510168 35.712631 0.206884 0.971310 0.117289 
23.796820 -1.494242 35.654812 0.235103 0.968980 0.076185 
23.804359 -1.509161 35.552040 0.370814 0.926124 0.069222 
23.839960 -1.498685 35.486252 0.337673 0.927418 0.160849 
23.855049 -1.506783 35.393360 0.440513 0.813361 0.379990 
23.908270 -1.480347 35.350819 0.437312 0.791157 0.427586 
23.929991 -1.482456 35.266628 0.412858 0.790673 0.452089 
23.987900 -1.451778 35.230282 0.409774 0.853378 0.322230 
23.985609 -1.475649 35.114269 0.397974 0.913511 0.084352 
24.028450 -1.458627 35.057961 0.206063 0.962765 0.174993 
24.043171 -1.467100 34.964378 0.190532 0.954007 0.231447 
24.105740 -1.432201 34.934189 0.152640 0.953571 0.259623 
24.113560 -1.446951 34.831390 0.370749 0.925860 0.072990 
24.154100 -1.432024 34.771969 0.156057 0.929662 0.333728 
19.743589 -2.013948 47.090370 0.230233 0.952607 0.198829 
19.782780 -1.999658 47.032101 0.128256 0.983563 0.127099 
19.798109 -2.006528 46.944698 0.324224 0.944463 0.053566 
19.825359 -2.002838 46.871811 0.213962 0.975656 0.048119 
19.839081 -2.011159 46.782372 0.348922 0.936292 0.040143 
19.864790 -2.008846 46.707539 0.341793 0.930737 0.130023 
19.889240 -2.007653 46.631149 0.475192 0.811325 0.340505 
19.934380 -1.988103 46.580059 0.500419 0.779755 0.376249 
19.955759 -1.989648 46.499859 0.352820 0.849199 0.392911 
20.002661 -1.968542 46.450901 0.198596 0.947782 0.249538 
20.016870 -1.976465 46.361870 0.092872 0.964788 0.246089 
20.068420 -1.951233 46.318600 0.220330 0.972938 0.069613 
20.062469 -1.977064 46.204781 0.027723 0.978240 0.205618 
20.121540 -1.945162 46.170712 0.237314 0.956776 0.168113 
20.129000 -1.959105 46.073261 0.287354 0.924193 0.251584 
20.176201 -1.937744 46.024609 0.342193 0.931181 0.125720 
20.181030 -1.954032 45.923859 0.385454 0.915894 0.112091 
20.218399 -1.941412 45.863091 0.377405 0.922089 0.085538 
20.220909 -1.959790 45.759399 0.627535 0.774706 -0.077656 
20.234060 -1.968708 45.668758 0.422798 0.899549 0.109786 
20.260050 -1.966224 45.593891 0.357000 0.910139 0.210233 
20.300640 -1.950763 45.536999 0.074753 0.968078 0.239241 
20.326420 -1.948468 45.461842 0.178080 0.974160 0.138924 
20.364059 -1.935632 45.401291 0.059866 0.990173 0.126387 
20.384569 -1.938045 45.319561 0.151022 0.980570 0.125200 
20.425659 -1.922141 45.263241 0.108338 0.984076 0.140916 
20.440670 -1.929460 45.174671 0.394521 0.918878 0.004177 
20.461981 -1.931175 45.093849 0.293488 0.954642 0.050238 
20.475750 -1.939605 45.003670 0.550171 0.834900 0.015959 
20.498131 -1.940377 44.924110 0.382581 0.911719 0.149669 
20.522421 -1.939457 44.846889 0.435793 0.877110 0.201897 
20.558710 -1.927856 44.784500 0.161373 0.951440 0.262146 
20.587240 -1.923167 44.712479 0.276854 0.942651 0.186446 
20.622210 -1.912745 44.648441 0.197622 0.969611 0.144221 
20.639351 -1.918216 44.562241 0.306823 0.945421 0.109720 
20.674681 -1.907483 44.498589 0.083585 0.973700 0.211948 
20.704439 -1.901725 44.428001 0.262408 0.948339 0.178312 
20.739901 -1.890880 44.364491 0.218572 0.968507 0.119254 
20.751341 -1.901450 44.271091 0.488662 0.871582 -0.039422 
20.765810 -1.909332 44.181412 0.351501 0.931209 0.096417 
20.790409 -1.908185 44.104309 0.505459 0.841860 0.189163 
20.823151 -1.899791 44.037312 0.243573 0.893457 0.377369 
20.866880 -1.881595 43.983990 0.320104 0.879178 0.352959 
20.900990 -1.871983 43.918671 0.243373 0.940361 0.237678 
20.925751 -1.870714 43.841671 0.223055 0.958713 0.176395 
20.968559 -1.853351 43.787170 0.153734 0.982906 0.101303 
20.972521 -1.870656 43.684151 0.310533 0.950140 0.028342 
21.011530 -1.856680 43.624882 0.128699 0.986758 0.098713 
21.021669 -1.868487 43.529499 0.409867 0.912117 0.007238 
21.044411 -1.869044 43.449841 0.250420 0.960246 0.123363 
21.071470 -1.865760 43.375542 0.397578 0.913328 0.088114 
21.092039 -1.868269 43.293098 0.327599 0.922232 0.205346 
21.125919 -1.858908 43.227291 0.431203 0.881994 0.190134 
21.151030 -1.857373 43.150490 0.210041 0.944068 0.254203 
21.188829 -1.844510 43.089561 0.278295 0.924978 0.258780 
21.226271 -1.831976 43.028172 0.179702 0.970248 0.162255 
21.242451 -1.838436 42.940079 0.327775 0.942573 0.064185 
21.273479 -1.831639 42.870602 0.095940 0.984844 0.144491 
21.299971 -1.828893 42.795410 0.238192 0.962740 0.128045 
21.334089 -1.819344 42.729759 0.165955 0.978177 0.125016 
21.350300 -1.825799 42.641590 0.375587 0.925095 0.055985 
21.378059 -1.821946 42.567902 0.197829 0.967635 0.156672 
21.405519 -1.818360 42.493820 0.400673 0.901265 0.164873 
21.434780 -1.813162 42.421982 0.162195 0.937359 0.308302 
21.475340 -1.797873 42.364349 0.176624 0.911081 0.372472 
21.526661 -1.772945 42.320301 0.044558 0.956262 0.289099 
21.549200 -1.773782 42.239922 0.161902 0.971222 0.174688 
21.593840 -1.754843 42.187420 0.157698 0.978638 0.131906 
21.600620 -1.769790 42.087101 0.344300 0.931871 0.114337 
21.646259 -1.749964 42.035820 0.179447 0.966761 0.182130 
21.657370 -1.761046 41.940910 0.371509 0.927737 0.035834 
21.689819 -1.753037 41.872921 0.121324 0.986659 0.108557 
21.707991 -1.757813 41.786861 0.298458 0.954168 0.022045 
21.733290 -1.756210 41.709782 0.075233 0.996636 0.032505 
21.748720 -1.763463 41.620159 0.199440 0.979035 -0.041399 
21.767521 -1.767697 41.534790 0.034477 0.995548 0.087720 
21.801889 -1.757994 41.469109 0.028475 0.976693 0.212743 
21.849461 -1.736453 41.420181 0.077877 0.979810 0.184138 
21.865669 -1.743030 41.331421 0.324899 0.934938 0.142589 
21.906509 -1.727532 41.273918 0.204314 0.962652 0.177643 
21.920839 -1.735802 41.182720 0.545501 0.837824 -0.021910 
21.934830 -1.744394 41.091030 0.398814 0.911977 0.096148 
21.960260 -1.742722 41.013882 0.589113 0.807336 -0.033980 
21.954531 -1.769012 40.897018 0.344686 0.911823 0.223093 
22.008101 -1.742120 40.855610 0.257710 0.935074 0.243357 
22.023420 -1.749541 40.765469 0.106866 0.979612 0.170117 
22.070641 -1.728353 40.715950 0.103936 0.974015 0.201225 
22.098480 -1.724548 40.641731 0.081961 0.965275 0.248045 
22.141911 -1.706756 40.587372 0.410380 0.904957 0.112429 
22.146851 -1.723525 40.483860 0.361968 0.925531 0.111228 
22.180510 -1.714515 40.416981 0.532133 0.844500 0.060451 
22.185829 -1.730957 40.313869 0.431625 0.866210 0.251752 
22.234760 -1.708241 40.266472 0.403951 0.873095 0.272999 
22.243820 -1.721333 40.168072 0.229722 0.947655 0.221759 
22.297600 -1.694271 40.126850 0.245563 0.953633 0.174022 
22.302771 -1.710874 40.023392 0.138367 0.984113 0.111245 
22.350080 -1.689631 39.973862 0.183032 0.975854 0.119199 
22.360821 -1.701242 39.877460 0.345984 0.927729 0.140049 
22.398729 -1.688451 39.815861 0.413866 0.907515 0.071640 
22.397360 -1.710968 39.703838 0.555454 0.820693 -0.133919 
22.407631 -1.723036 39.606689 0.331341 0.942954 -0.032426 
22.419720 -1.733473 39.511841 0.530286 0.846134 -0.053427 
22.430010 -1.745541 39.414631 0.176300 0.931913 0.316950 
22.494289 -1.709059 39.386799 0.105115 0.906695 0.408479 
22.531759 -1.696683 39.324501 0.116510 0.937867 0.326851 
22.565689 -1.687502 39.257622 0.347190 0.884036 0.312952 
22.610331 -1.668677 39.204540 0.275002 0.932397 0.234542 
22.622240 -1.679321 39.109249 0.633691 0.772970 -0.030879 
22.635460 -1.688792 39.015621 0.351877 0.931009 0.096978 
22.665300 -1.683303 38.943378 0.418280 0.908182 0.015747 
22.671419 -1.699183 38.840500 0.235354 0.962790 0.132832 
22.712151 -1.683901 38.782269 0.340763 0.929758 0.139392 
22.727591 -1.691403 38.691349 0.127389 0.946859 0.295346 
22.784130 -1.661894 38.653511 0.033970 0.915341 0.401245 
22.833071 -1.639226 38.605850 0.091416 0.954189 0.284898 
22.857121 -1.638978 38.526001 0.384896 0.911972 0.141996 
22.888910 -1.631769 38.456131 0.281737 0.948772 0.143028 
22.906170 -1.637662 38.367420 0.481274 0.875244 0.048198 
22.931179 -1.636573 38.288712 0.241100 0.951074 0.193208 
22.960690 -1.631431 38.215820 0.492719 0.869248 0.040450 
22.970390 -1.644156 38.117199 0.133573 0.985916 0.100640 
23.008770 -1.631029 38.055740 0.263554 0.960962 0.084213 
23.024050 -1.638744 37.964279 0.023607 0.968375 0.248381 
23.080231 -1.609565 37.925930 0.165028 0.943421 0.287616 
23.108000 -1.606019 37.850651 0.219552 0.947449 0.232676 
23.142090 -1.596775 37.783562 0.534025 0.842288 0.073266 
23.149361 -1.611741 37.681549 0.358669 0.931920 0.053682 
23.177231 -1.608117 37.606319 0.380630 0.924726 -0.001301 
23.180031 -1.627144 37.498379 0.293341 0.954335 0.056527 
23.216810 -1.615490 37.434689 0.223499 0.967247 0.120336 
23.236151 -1.619590 37.348240 0.218202 0.954454 0.203485 
23.283110 -1.598752 37.297791 0.253815 0.951910 0.171597 
23.290541 -1.613628 37.195728 0.263112 0.955374 0.134286 
23.335699 -1.594422 37.142899 0.190588 0.958669 0.211259 
23.356541 -1.597192 37.058289 0.286471 0.861553 0.419118 
23.414740 -1.566208 37.022491 0.352611 0.803620 0.479437 
23.438560 -1.566295 36.941730 0.417882 0.855030 0.307080 
23.480350 -1.550139 36.884460 0.417712 0.892642 0.169430 
23.488449 -1.564456 36.783051 0.313621 0.946951 0.070185 
23.523260 -1.554622 36.716591 0.274558 0.959872 0.057133 
23.529650 -1.570495 36.612862 0.197987 0.972229 0.124790 
23.583151 -1.543766 36.570869 0.152268 0.973000 0.173453 
23.590719 -1.558591 36.468601 0.392964 0.911660 0.120229 
23.630600 -1.544189 36.408710 0.296906 0.934187 0.197843 
23.646509 -1.551475 36.317329 0.513315 0.851487 0.107134 
23.678860 -1.543902 36.247490 0.457780 0.864264 0.208532 
23.698139 -1.548151 36.160469 0.411200 0.842703 0.347515 
23.754299 -1.519038 36.121899 0.212883 0.918951 0.331978 
23.766930 -1.529320 36.026070 0.383928 0.920406 0.073836 
23.803511 -1.517931 35.961720 0.140480 0.982619 0.121347 
23.820080 -1.524664 35.870998 0.245370 0.967478 0.061485 
23.852890 -1.516700 35.801640 0.101998 0.989456 0.102825 
23.874140 -1.519211 35.717010 0.396644 0.915054 -0.073147 
23.873020 -1.541992 35.602821 0.282518 0.959169 0.013368 
23.904280 -1.535448 35.531330 0.403062 0.914369 0.038353 
23.914400 -1.548068 35.431881 0.306947 0.916136 0.257834 
23.962540 -1.526233 35.382641 0.345305 0.889280 0.299910 
23.985609 -1.527128 35.300240 0.247075 0.866071 0.434597 
24.044809 -1.495271 35.265610 0.349469 0.878473 0.325816 
24.058260 -1.504897 35.170441 0.247992 0.950618 0.186617 
24.101931 -1.487121 35.115250 0.253183 0.951837 0.172928 
24.116779 -1.495489 35.021858 0.122799 0.959872 0.252124 
24.168280 -1.470624 34.977009 0.364823 0.905421 0.217066 
24.184450 -1.477806 34.885311 0.229940 0.956547 0.179294 
24.224390 -1.463436 34.825100 0.210754 0.944641 0.251468 
19.424440 -2.103434 48.148121 0.096336 0.792069 0.602782 
19.487101 -2.068313 48.118530 0.227315 0.888398 0.398844 
19.502069 -2.075433 48.031139 0.277685 0.942002 0.188477 
19.538370 -2.063658 47.969589 0.404335 0.913570 -0.043634 
19.526140 -2.094891 47.849140 0.502000 0.823548 -0.264128 
19.513420 -2.126568 47.728020 0.051380 0.997322 -0.052043 
19.535990 -2.126990 47.649681 0.253756 0.961504 -0.105441 
19.543510 -2.140750 47.553040 -0.100890 0.977430 0.185612 
19.602100 -2.109249 47.518440 0.007672 0.921038 0.389398 
19.651119 -2.086231 47.472221 0.055949 0.890936 0.450669 
19.693451 -2.069152 47.417850 0.155817 0.826274 0.541287 
19.754681 -2.035300 47.386501 0.308060 0.868261 0.388873 
19.764870 -2.046725 47.292969 0.044852 0.963125 0.265291 
19.818100 -2.019969 47.251881 0.324560 0.945098 0.038078 
19.815861 -2.042429 47.143139 0.168843 0.978204 0.120869 
19.869789 -2.015060 47.102871 0.301154 0.946026 0.119752 
19.867990 -2.037151 46.994572 0.352793 0.931454 0.089052 
19.909981 -2.020389 46.939701 0.357414 0.927777 0.107167 
19.908251 -2.042428 46.831409 0.475620 0.879580 -0.011168 
19.933081 -2.040905 46.755520 0.460786 0.885864 0.054048 
19.939960 -2.055322 46.657650 0.469388 0.839903 0.272466 
19.986601 -2.034448 46.608391 0.319992 0.864424 0.387785 
20.015890 -2.028971 46.537899 0.180445 0.874549 0.450115 
20.079550 -1.992978 46.509480 0.198966 0.902286 0.382482 
20.095819 -1.999080 46.423000 0.100414 0.964813 0.243006 
20.147800 -1.973454 46.380280 0.260848 0.955969 0.134469 
20.149151 -1.992831 46.275421 0.125374 0.987935 0.090921 
20.189360 -1.977670 46.218239 0.333950 0.939886 0.071357 
20.195629 -1.992685 46.119350 0.171547 0.965913 0.193868 
20.248011 -1.966716 46.077080 0.285102 0.944479 0.163328 
20.260019 -1.976646 45.985168 0.282088 0.954725 0.094481 
20.290800 -1.969884 45.916321 0.445949 0.894267 -0.037626 
20.274111 -2.005355 45.789001 0.518342 0.855119 0.009696 
20.313101 -1.991308 45.730190 0.359789 0.918073 0.166412 
20.323891 -2.002349 45.636620 0.210255 0.934234 0.288096 
20.386391 -1.967388 45.606758 0.140329 0.927453 0.346612 
20.406900 -1.969798 45.525120 0.113624 0.974691 0.192530 
20.450451 -1.951707 45.471870 0.215149 0.969582 0.116711 
20.460340 -1.963571 45.377079 0.180873 0.973406 0.140589 
20.504419 -1.945013 45.324459 0.326063 0.940041 0.100026 
20.507021 -1.963389 45.220570 0.360839 0.932181 0.028878 
20.537760 -1.956711 45.151440 0.436186 0.899817 -0.008436 
20.532650 -1.981973 45.037910 0.533274 0.845940 0.002111 
20.559990 -1.978339 44.964500 0.424104 0.895866 0.132513 
20.578030 -1.982995 44.879539 0.301653 0.902651 0.306964 
20.631790 -1.955828 44.838821 0.151731 0.932757 0.327021 
20.654110 -1.956682 44.759121 0.249638 0.941507 0.226375 
20.696650 -1.939520 44.704479 0.200093 0.964569 0.171960 
20.710060 -1.948325 44.613670 0.199180 0.963521 0.178760 
20.759380 -1.925122 44.567410 0.230314 0.952139 0.200963 
20.770411 -1.936064 44.473579 0.298506 0.937384 0.179457 
20.814659 -1.917385 44.421009 0.312763 0.941299 0.127025 
20.814461 -1.938354 44.313148 0.465118 0.885121 -0.015021 
20.841591 -1.934960 44.239231 0.339863 0.939807 0.035451 
20.845480 -1.952295 44.136360 0.402253 0.903368 0.148721 
20.888531 -1.934706 44.082211 0.177055 0.926189 0.332905 
20.919090 -1.928267 44.012489 0.295939 0.873357 0.386868 
20.972589 -1.901354 43.971359 0.110862 0.927559 0.356853 
20.998510 -1.899054 43.895828 0.200899 0.945319 0.256926 
21.042990 -1.880191 43.843441 0.309914 0.937705 0.157043 
21.048820 -1.895847 43.742771 0.323033 0.938131 0.124743 
21.090300 -1.879673 43.686600 0.356682 0.924484 0.134559 
21.092291 -1.898765 43.581059 0.368761 0.926462 0.075390 
21.131680 -1.884467 43.522228 0.286810 0.950850 0.116725 
21.135010 -1.902379 43.418282 0.521580 0.852850 0.024529 
21.163940 -1.897433 43.346310 0.310119 0.933093 0.182107 
21.186510 -1.898177 43.266361 0.368871 0.902653 0.221702 
21.227510 -1.882450 43.209480 0.171804 0.948439 0.266360 
21.251770 -1.881693 43.131599 0.272582 0.922059 0.274783 
21.298361 -1.860984 43.081692 0.247282 0.938033 0.242789 
21.315260 -1.866809 42.994530 0.339377 0.922978 0.181479 
21.357189 -1.850262 42.938770 0.280500 0.937370 0.206539 
21.369230 -1.860458 42.845428 0.411028 0.896539 0.165147 
21.409531 -1.845371 42.787590 0.363893 0.907243 0.210929 
21.422800 -1.854475 42.695728 0.456222 0.882987 0.110431 
21.454910 -1.846731 42.627541 0.390128 0.910215 0.138957 
21.464600 -1.859054 42.531090 0.327261 0.916194 0.231279 
21.518379 -1.831929 42.490150 0.114403 0.941269 0.317685 
21.538990 -1.834488 42.407410 0.110063 0.924273 0.365522 
21.607241 -1.794407 42.384708 0.129328 0.928851 0.347145 
21.624781 -1.799717 42.298069 0.159712 0.964762 0.209109 
21.670429 -1.779872 42.246861 0.332273 0.938390 0.094974 
21.667940 -1.803141 42.134838 0.287779 0.944473 0.158603 
21.717569 -1.779738 42.088631 0.390532 0.902169 0.183240 
21.721621 -1.797162 41.984798 0.423323 0.886035 0.189050 
21.769300 -1.775510 41.936100 0.319095 0.918793 0.232374 
21.774321 -1.792083 41.833401 0.175673 0.973257 0.148017 
21.830601 -1.762723 41.795582 0.083015 0.989225 0.120594 
21.832911 -1.781739 41.689381 0.127525 0.991695 -0.016669 
21.868139 -1.771259 41.624851 0.078087 0.996322 0.035288 
21.882179 -1.779775 41.533428 0.092762 0.986232 0.136901 
21.927059 -1.760647 41.481110 0.148810 0.983121 0.106434 
21.936279 -1.773506 41.383499 0.195894 0.972227 0.128061 
21.980551 -1.754929 41.330372 0.234499 0.967099 0.098644 
21.984100 -1.772885 41.225491 0.442477 0.896273 -0.030138 
22.007530 -1.773023 41.145809 0.341803 0.938599 0.046932 
22.021311 -1.781813 41.053848 0.479834 0.877139 -0.019673 
22.040560 -1.785713 40.968788 0.112621 0.979630 0.166255 
22.078720 -1.772639 40.907791 0.156655 0.942704 0.294564 
22.127541 -1.749997 40.860371 0.089418 0.964687 0.247758 
22.144650 -1.755834 40.772499 0.240823 0.961324 0.133640 
22.183901 -1.741797 40.712841 0.245701 0.957372 0.151889 
22.196270 -1.751896 40.618870 0.488377 0.869632 0.072306 
22.228350 -1.744302 40.550030 0.344168 0.933688 0.098867 
22.236759 -1.757979 40.450920 0.589640 0.804465 -0.071842 
22.244530 -1.772242 40.350929 0.313686 0.918568 0.240488 
22.292400 -1.750475 40.302189 0.319852 0.888471 0.329111 
22.326309 -1.741251 40.235600 0.112771 0.950999 0.287896 
22.361561 -1.730832 40.170689 0.193665 0.950252 0.243958 
22.404261 -1.713724 40.115299 0.111489 0.978336 0.174438 
22.422079 -1.718985 40.028019 0.521090 0.853196 -0.022854 
22.435110 -1.728559 39.934570 0.333804 0.934622 0.122701 
22.466160 -1.721933 39.864189 0.493640 0.869661 0.002924 
22.460449 -1.748383 39.746601 0.399107 0.915949 -0.041855 
22.488251 -1.744696 39.671982 0.318554 0.947074 -0.039664 
22.483841 -1.769993 39.555950 0.322557 0.946186 0.026252 
22.527740 -1.751832 39.501961 0.015865 0.975352 0.220082 
22.551941 -1.751404 39.422619 0.141565 0.938358 0.315347 
22.613600 -1.717257 39.391460 0.117467 0.960838 0.250984 
22.624990 -1.728362 39.295601 0.316480 0.911729 0.261899 
22.677080 -1.702833 39.252121 0.390168 0.897198 0.206894 
22.673281 -1.727639 39.136600 0.439159 0.893709 0.091783 
22.718170 -1.708601 39.083809 0.312593 0.935165 0.166590 
22.726460 -1.722536 38.983791 0.394745 0.915392 0.078955 
22.763889 -1.710222 38.921341 0.147682 0.980336 0.130886 
22.778099 -1.718837 38.828880 0.181843 0.973377 0.139535 
22.829170 -1.694242 38.784019 0.032558 0.976270 0.214095 
22.849991 -1.696913 38.700039 0.166149 0.937858 0.304658 
22.906651 -1.667280 38.662399 0.272276 0.923949 0.268672 
22.916510 -1.679845 38.564178 0.327323 0.929694 0.168901 
22.959669 -1.662386 38.509048 0.370640 0.920897 0.120723 
22.962610 -1.681200 38.401810 0.459862 0.879931 0.119370 
23.003099 -1.666155 38.343182 0.253620 0.942052 0.219578 
23.021990 -1.670608 38.256519 0.296817 0.939971 0.168389 
23.067341 -1.651179 38.204170 0.147570 0.975359 0.164007 
23.078609 -1.662517 38.107559 0.239874 0.965422 0.102086 
23.122709 -1.644228 38.053551 0.078054 0.977697 0.194978 
23.143591 -1.646902 37.969360 0.406615 0.893492 0.190621 
23.183580 -1.632339 37.909981 0.396971 0.892333 0.214840 
23.194510 -1.644003 37.812790 0.541532 0.833106 0.112593 
23.230240 -1.633289 37.747829 0.272812 0.939772 0.205917 
23.253380 -1.633945 37.666451 0.483069 0.874225 0.048730 
23.273109 -1.637696 37.580601 0.198102 0.975656 0.094077 
23.297440 -1.637287 37.500721 0.366481 0.930420 0.003314 
23.307980 -1.649354 37.402802 0.144243 0.979156 0.142991 
23.350821 -1.632235 37.347000 0.194232 0.971295 0.137331 
23.373619 -1.633235 37.265018 0.126813 0.983514 0.128914 
23.406580 -1.625057 37.196281 0.405716 0.912592 0.050712 
23.414770 -1.639276 37.095139 0.337381 0.883064 0.326148 
23.468969 -1.611901 37.054131 0.372264 0.804014 0.463660 
23.503229 -1.602555 36.987030 0.305712 0.870504 0.385699 
23.543449 -1.587822 36.927719 0.401113 0.883858 0.240633 
23.565960 -1.589115 36.845211 0.208525 0.965693 0.154773 
23.598200 -1.581606 36.775410 0.294054 0.954405 0.051407 
23.609831 -1.592754 36.678570 0.118340 0.984343 0.130631 
23.651360 -1.576856 36.620899 0.309533 0.948766 0.063497 
23.655060 -1.595203 36.513561 0.244571 0.963412 0.109651 
23.697639 -1.578360 36.457230 0.391640 0.916904 0.076843 
23.700220 -1.597729 36.348339 0.558088 0.827104 0.066616 
23.727890 -1.594400 36.272362 0.474289 0.859250 0.191675 
23.754650 -1.591893 36.195171 0.243954 0.849295 0.468171 
23.817169 -1.557003 36.165001 0.279470 0.869117 0.408084 
23.833830 -1.563652 36.074478 0.263084 0.941764 0.209447 
23.878130 -1.545276 36.020309 0.181906 0.965854 0.184492 
23.895769 -1.551044 35.931030 0.237360 0.961047 0.141597 
23.936359 -1.536030 35.871948 0.320320 0.939456 0.121730 
23.944229 -1.550685 35.769680 0.420059 0.907460 0.008115 
23.972969 -1.546421 35.694920 0.298440 0.954422 0.003648 
23.972639 -1.568517 35.581749 0.435033 0.898732 -0.055018 
23.995590 -1.569518 35.499271 0.127278 0.981037 0.146175 
24.028811 -1.561212 35.430328 0.343997 0.923421 0.170176 
24.058901 -1.555753 35.357231 0.127325 0.934777 0.331631 
24.103090 -1.537495 35.302780 0.321799 0.907164 0.271107 
24.132710 -1.532465 35.229019 0.144609 0.956373 0.253849 
24.172440 -1.518265 35.168629 0.301804 0.919661 0.251272 
24.208651 -1.507268 35.103561 0.271829 0.943526 0.189387 
24.223450 -1.515703 35.010078 0.446247 0.875036 0.187550 
24.267981 -1.497156 34.956009 0.266506 0.930783 0.250234 
24.284149 -1.504365 34.864281 0.438940 0.895168 0.077498 
24.310619 -1.502226 34.786190 0.186845 0.964302 0.187645 
19.056580 -2.196132 49.352169 0.282427 0.951955 0.118392 
19.081619 -2.194262 49.277401 0.237701 0.969355 0.062046 
19.099920 -2.198354 49.194500 0.336541 0.915130 0.221987 
19.141680 -2.181702 49.139801 0.346362 0.896940 0.274833 
19.164080 -2.182180 49.061779 0.280767 0.833526 0.475819 
19.226101 -2.147612 49.031448 0.335144 0.844255 0.418225 
19.238390 -2.157036 48.941231 0.220628 0.921338 0.320094 
19.289101 -2.132478 48.897270 0.474134 0.867241 0.151952 
19.288750 -2.153105 48.791729 0.254817 0.954898 0.152439 
19.325960 -2.140495 48.731468 0.368285 0.929680 0.007825 
19.326441 -2.160416 48.626831 0.258233 0.953288 0.156712 
19.367260 -2.144616 48.570889 0.431324 0.901784 -0.027291 
19.352430 -2.178105 48.447670 0.505576 0.846730 -0.165656 
19.357981 -2.193554 48.349030 0.029835 0.994318 0.102183 
19.395050 -2.181095 48.288460 0.000228 0.942129 0.335251 
19.454910 -2.148450 48.255470 0.157504 0.903098 0.399509 
19.486139 -2.141165 48.187840 0.085935 0.863748 0.496543 
19.552139 -2.103078 48.162300 0.160651 0.904446 0.395182 
19.573099 -2.104899 48.082191 0.223205 0.957044 0.185057 
19.609921 -2.092666 48.021290 0.452015 0.892007 0.002559 
19.599779 -2.122069 47.903389 0.320840 0.939864 -0.117124 
19.622681 -2.122199 47.825520 0.192110 0.976779 -0.094850 
19.617840 -2.146925 47.713940 0.291896 0.953950 -0.069114 
19.646931 -2.141579 47.643520 0.091959 0.990386 0.103336 
19.667690 -2.143615 47.562969 0.255147 0.908772 0.330202 
19.723749 -2.114345 47.525330 0.241570 0.851667 0.465089 
19.750999 -2.110641 47.452629 0.213213 0.818359 0.533694 
19.816450 -2.073042 47.426418 0.130270 0.846508 0.516192 
19.851450 -2.062457 47.363152 0.101919 0.954393 0.280618 
19.886221 -2.052076 47.299580 0.348089 0.928607 0.128540 
19.906290 -2.054760 47.218048 0.276961 0.957800 0.076893 
19.923519 -2.059967 47.133030 0.546809 0.837062 -0.018091 
19.934410 -2.070809 47.040230 0.289991 0.949084 0.123061 
19.966930 -2.062450 46.973820 0.468023 0.883119 0.032475 
19.970610 -2.079718 46.872120 0.378979 0.925295 0.014297 
19.996090 -2.077624 46.797050 0.399532 0.916687 0.007699 
20.003790 -2.091335 46.700180 0.364043 0.900990 0.235987 
20.053730 -2.067515 46.654991 0.280805 0.879423 0.384400 
20.078979 -2.065638 46.579559 0.205991 0.859683 0.467454 
20.138470 -2.033335 46.546059 0.133119 0.848379 0.512379 
20.178940 -2.017937 46.489262 0.087414 0.948420 0.304726 
20.210810 -2.010191 46.421890 0.318648 0.925132 0.206384 
20.248159 -1.997574 46.361240 0.309730 0.941029 0.136128 
20.256430 -2.010820 46.264858 0.370248 0.924726 0.088311 
20.295010 -1.997112 46.205681 0.325839 0.932038 0.158538 
20.305830 -2.008106 46.112358 0.542849 0.836649 0.073026 
20.333151 -2.004428 46.039280 0.314773 0.935504 0.160466 
20.355301 -2.005346 45.959839 0.588535 0.801185 -0.108302 
20.337130 -2.042164 45.830711 0.396686 0.917904 0.009598 
20.370449 -2.033166 45.764919 0.312897 0.935800 0.162399 
20.396330 -2.030796 45.689949 0.090874 0.940709 0.326815 
20.446890 -2.006454 45.645390 0.112473 0.913256 0.391553 
20.490311 -1.988472 45.592030 0.091763 0.958097 0.271348 
20.518749 -1.983830 45.520161 0.349683 0.929408 0.117991 
20.544050 -1.981985 45.444408 0.233648 0.964991 0.119165 
20.564550 -1.984424 45.362690 0.461511 0.886261 0.039354 
20.584900 -1.987006 45.280750 0.318405 0.947368 0.033346 
20.596670 -1.997240 45.188171 0.521687 0.846337 -0.107505 
20.597811 -2.016954 45.082390 0.381510 0.924184 0.018288 
20.627081 -2.011611 45.011372 0.307533 0.944817 0.112890 
20.647940 -2.013767 44.929920 0.087471 0.953385 0.288799 
20.702850 -1.985569 44.890640 0.112540 0.958416 0.262246 
20.725590 -1.986058 44.811481 0.099124 0.965137 0.242248 
20.775681 -1.962158 44.766232 0.230578 0.960841 0.153680 
20.785259 -1.974388 44.670689 0.195401 0.972152 0.129377 
20.823120 -1.961406 44.610222 0.402738 0.905035 0.136801 
20.842039 -1.965327 44.526199 0.338536 0.910135 0.238845 
20.882139 -1.950345 44.468498 0.505716 0.852305 0.133522 
20.880890 -1.972275 44.359329 0.296017 0.953798 0.051412 
20.917049 -1.960826 44.296669 0.355507 0.934500 0.018015 
20.918421 -1.980432 44.190681 0.170937 0.976884 0.128370 
20.967871 -1.957121 44.144539 0.157935 0.971668 0.175837 
20.982229 -1.965150 44.054642 0.110832 0.942674 0.314772 
21.048290 -1.927013 44.029190 0.093109 0.952114 0.291220 
21.066219 -1.931861 43.943710 0.184617 0.962703 0.197788 
21.107780 -1.915603 43.887699 0.402654 0.911842 0.080082 
21.110920 -1.933680 43.783680 0.390770 0.908915 0.145505 
21.150499 -1.919203 43.725140 0.485225 0.864693 0.129857 
21.155930 -1.935244 43.623909 0.385590 0.906502 0.171971 
21.198111 -1.918454 43.568581 0.510882 0.852023 0.114267 
21.190559 -1.946119 43.451012 0.443928 0.887395 0.124333 
21.235380 -1.926969 43.398960 0.327155 0.921225 0.210509 
21.247030 -1.937486 43.305340 0.265269 0.921498 0.283679 
21.304581 -1.906960 43.269230 0.212818 0.930290 0.298780 
21.318090 -1.915829 43.177872 0.231443 0.943946 0.235371 
21.366211 -1.893743 43.129910 0.349566 0.920135 0.176507 
21.371180 -1.910259 43.027779 0.381238 0.893720 0.236479 
21.420790 -1.886838 42.981682 0.473691 0.852164 0.222336 
21.423380 -1.905506 42.876469 0.498275 0.838339 0.221158 
21.467350 -1.887142 42.823250 0.487245 0.841444 0.233590 
21.474440 -1.901789 42.723629 0.459247 0.866004 0.197810 
21.516670 -1.884990 42.668179 0.363642 0.909094 0.203256 
21.530569 -1.893559 42.577049 0.187835 0.929667 0.316918 
21.590710 -1.860728 42.544151 0.150813 0.911681 0.382221 
21.618561 -1.856820 42.470539 0.046157 0.934896 0.351909 
21.669790 -1.831966 42.426411 0.197870 0.913685 0.355003 
21.705681 -1.820853 42.362930 0.261592 0.932757 0.248060 
21.732599 -1.817785 42.288101 0.523810 0.849787 0.059040 
21.744190 -1.828458 42.193878 0.302839 0.947983 0.098065 
21.770309 -1.826112 42.117989 0.628052 0.778046 0.013998 
21.776711 -1.841456 42.017120 0.333470 0.896016 0.293177 
21.829800 -1.814950 41.975281 0.186154 0.913459 0.361856 
21.865049 -1.804434 41.910870 -0.066158 0.959261 0.274668 
21.909361 -1.785800 41.857910 0.136428 0.978164 0.156785 
21.936600 -1.782481 41.783321 0.059488 0.996791 0.053560 
21.955021 -1.787074 41.697521 0.178248 0.983952 -0.008126 
21.977110 -1.788389 41.616329 0.033684 0.994536 0.098813 
22.012140 -1.778089 41.551540 0.245352 0.968488 0.042826 
22.025280 -1.787439 41.458950 0.144683 0.986406 0.077910 
22.058359 -1.778902 41.391628 0.378984 0.925287 -0.014664 
22.055580 -1.802565 41.278709 0.366329 0.930096 -0.026930 
22.082270 -1.799780 41.203209 0.370687 0.928745 -0.004873 
22.085470 -1.818093 41.097778 0.293376 0.953259 0.072310 
22.127790 -1.801276 41.042130 0.149556 0.980736 0.125656 
22.137920 -1.813380 40.945438 0.167739 0.946372 0.276123 
22.201170 -1.777779 40.916409 0.133829 0.958209 0.252834 
22.216860 -1.784900 40.826759 0.227802 0.964245 0.135418 
22.253031 -1.773620 40.763210 0.381959 0.921611 0.068857 
22.259001 -1.789495 40.661072 0.475149 0.874181 0.100208 
22.293430 -1.779791 40.595242 0.464631 0.878045 0.114695 
22.299191 -1.795873 40.492748 0.519308 0.854469 0.014173 
22.326599 -1.792490 40.417889 0.230565 0.960950 0.153017 
22.347610 -1.794870 40.334820 0.250324 0.914761 0.317097 
22.406509 -1.763184 40.300209 0.027032 0.938592 0.343967 
22.431549 -1.761948 40.222252 0.178349 0.949494 0.258172 
22.478970 -1.740589 40.172939 0.375523 0.917105 0.133794 
22.472191 -1.767989 40.054150 0.564293 0.825253 0.023039 
22.505640 -1.759206 39.986889 0.381702 0.906514 0.180377 
22.524599 -1.763469 39.901009 0.573204 0.818977 0.026713 
22.542290 -1.768880 39.813469 0.232861 0.970027 0.069454 
22.565519 -1.769312 39.733009 0.409096 0.908543 -0.084797 
22.560410 -1.795265 39.616089 0.133515 0.985231 0.107211 
22.616289 -1.766314 39.577518 0.066675 0.973548 0.218540 
22.639540 -1.766743 39.496990 -0.007853 0.976394 0.215852 
22.686211 -1.746088 39.446571 0.248756 0.962778 0.105727 
22.694960 -1.759598 39.347309 0.210626 0.965356 0.154026 
22.736099 -1.743919 39.289761 0.438411 0.893728 0.095114 
22.745449 -1.756899 39.191200 0.320871 0.940977 0.107726 
22.777269 -1.749638 39.121571 0.414907 0.902821 0.112991 
22.794821 -1.755249 39.033501 0.160340 0.963498 0.214388 
22.844749 -1.731671 38.987202 0.110534 0.977843 0.177781 
22.862030 -1.737532 38.898731 0.043843 0.986595 0.157187 
22.907990 -1.717532 38.847301 0.204112 0.968411 0.143243 
22.925779 -1.722943 38.759430 0.187155 0.959268 0.211607 
22.967159 -1.707085 38.702042 0.287177 0.928112 0.236933 
22.996321 -1.702247 38.628830 0.328156 0.929383 0.169003 
23.021580 -1.700938 38.550541 0.497184 0.867074 0.031492 
23.027309 -1.717265 38.446911 0.228042 0.959747 0.163961 
23.076071 -1.694761 38.399010 0.220827 0.959184 0.176638 
23.091221 -1.702593 38.307529 0.177302 0.959135 0.220507 
23.141239 -1.678949 38.261250 0.233255 0.954081 0.187941 
23.154930 -1.688121 38.167801 0.130657 0.977751 0.164109 
23.201210 -1.667856 38.116650 0.346913 0.934380 0.081149 
23.198799 -1.691585 38.002201 0.442052 0.884796 0.147396 
23.240120 -1.675806 37.944569 0.487698 0.854697 0.177889 
23.250959 -1.687579 37.847260 0.506950 0.831195 0.228291 
23.294439 -1.669862 37.792400 0.373162 0.896148 0.240142 
23.300831 -1.685668 37.689220 0.377038 0.908387 0.180763 
23.351891 -1.661114 37.644199 0.164440 0.968437 0.187322 
23.361780 -1.673770 37.545509 0.178700 0.974648 0.134640 
23.419161 -1.643500 37.508709 0.079702 0.982315 0.169426 
23.427481 -1.657589 37.407909 0.314172 0.947694 0.056322 
23.463079 -1.647020 37.342659 0.299869 0.950505 0.081351 
23.468031 -1.664183 37.237350 0.574748 0.816588 -0.053381 
23.485060 -1.670422 37.147781 0.365243 0.909676 0.197704 
23.517651 -1.662590 37.078529 0.411701 0.817215 0.403314 
23.564409 -1.641943 37.027790 0.238516 0.862491 0.446340 
23.600321 -1.631106 36.962860 0.333295 0.867578 0.369085 
23.646650 -1.610850 36.911549 0.130426 0.944507 0.301488 
23.671721 -1.609844 36.832371 0.196854 0.970083 0.142080 
23.709709 -1.597138 36.770111 0.134373 0.985084 0.107484 
23.724449 -1.605493 36.677330 0.321216 0.946223 0.038505 
23.755600 -1.598995 36.606049 0.230026 0.972686 0.031153 
23.758980 -1.617651 36.498280 0.539673 0.833104 -0.121207 
23.765400 -1.633575 36.394428 0.325361 0.943968 0.055356 
23.798170 -1.625625 36.325180 0.283102 0.951886 0.117329 
23.817610 -1.629765 36.238369 0.143335 0.923919 0.354723 
23.876080 -1.598529 36.202900 0.165456 0.912857 0.373250 
23.909031 -1.590426 36.133839 0.031411 0.957108 0.288024 
23.956181 -1.569464 36.083450 0.229223 0.965524 0.123371 
23.965940 -1.582398 35.983780 0.256720 0.963491 0.076024 
23.997200 -1.575840 35.912430 0.454925 0.889649 0.039593 
24.007231 -1.588549 35.813030 0.453863 0.885156 0.102503 
24.040470 -1.580209 35.744221 0.475237 0.877139 0.069119 
24.043440 -1.599340 35.635410 0.275767 0.956458 0.095612 
24.088680 -1.580126 35.582401 0.246475 0.963292 0.106385 
24.088940 -1.601736 35.469910 0.319841 0.934893 0.153874 
24.141350 -1.576018 35.426361 0.159995 0.938396 0.306292 
24.165590 -1.575869 35.345520 0.223982 0.937614 0.265919 
24.214649 -1.553193 35.297531 0.279957 0.936869 0.209525 
24.224930 -1.565741 35.198139 0.433935 0.863533 0.256927 
24.273821 -1.543221 35.149899 0.422833 0.871095 0.249812 
24.281830 -1.557846 35.047421 0.473858 0.837575 0.271894 
24.330839 -1.535229 34.999310 0.371126 0.853001 0.366953 
24.354031 -1.536074 34.916908 0.391475 0.890154 0.233182 
24.394430 -1.521279 34.857349 0.132860 0.911704 0.388773 
19.129080 -2.224171 49.404671 0.334137 0.907353 0.255076 
19.161600 -2.215684 49.338921 0.402229 0.912121 0.079045 
19.161760 -2.235840 49.234230 0.388901 0.907526 0.158597 
19.204710 -2.218137 49.180969 0.281221 0.928702 0.241716 
19.221460 -2.223625 49.096161 0.162199 0.905641 0.391799 
19.284651 -2.188003 49.067261 0.152948 0.925628 0.346149 
19.308399 -2.187299 48.990860 0.166336 0.959769 0.226222 
19.344790 -2.175414 48.929649 0.391578 0.910343 0.133949 
19.365000 -2.177861 48.848919 0.237457 0.961016 0.141642 
19.395929 -2.170810 48.781101 0.447411 0.894056 0.022095 
19.399220 -2.188257 48.679871 0.314497 0.944825 0.091638 
19.434299 -2.177550 48.617001 0.420540 0.907255 -0.005912 
19.421249 -2.209491 48.495941 0.319898 0.945733 -0.057049 
19.456659 -2.198494 48.433430 0.155037 0.985762 0.065090 
19.467291 -2.209466 48.340912 0.128283 0.959864 0.249407 
19.522530 -2.180907 48.302349 0.029943 0.920207 0.390284 
19.562599 -2.165793 48.245430 -0.061287 0.905836 0.419171 
19.617491 -2.137529 48.206470 0.174341 0.918482 0.354960 
19.652000 -2.127347 48.142811 0.296005 0.940906 0.164551 
19.665239 -2.136035 48.053322 0.503631 0.863913 0.003278 
19.687639 -2.136603 47.974911 0.315940 0.947546 0.048364 
19.704491 -2.142096 47.889740 0.467129 0.876261 -0.118136 
19.692940 -2.172809 47.770000 0.215657 0.976362 -0.014504 
19.731159 -2.159360 47.710709 0.262904 0.964786 -0.008371 
19.725281 -2.185055 47.597771 0.336539 0.911723 0.235590 
19.778721 -2.158101 47.556961 0.190047 0.883174 0.428818 
19.813900 -2.147365 47.493919 0.040585 0.863915 0.501999 
19.876579 -2.112206 47.464371 0.062101 0.825765 0.560584 
19.927500 -2.087492 47.420502 0.205201 0.916060 0.344568 
19.947411 -2.090314 47.338829 0.502789 0.853154 0.139038 
19.977551 -2.084057 47.269611 0.439118 0.889576 0.125816 
19.987789 -2.095483 47.176071 0.456753 0.884915 0.091112 
20.022390 -2.085276 47.112240 0.305689 0.941899 0.139216 
20.032730 -2.096636 47.018749 0.508893 0.860829 0.001074 
20.055260 -2.097166 46.940109 0.280584 0.957673 0.064308 
20.070570 -2.104112 46.852619 0.497270 0.859740 -0.116491 
20.062660 -2.131718 46.736671 0.307513 0.934688 0.178311 
20.112780 -2.107739 46.691711 0.233516 0.914650 0.329977 
20.143480 -2.101024 46.622959 0.093678 0.895678 0.434725 
20.200729 -2.070706 46.586731 0.036845 0.826722 0.561403 
20.258390 -2.040018 46.551029 0.270733 0.894870 0.354839 
20.269310 -2.050910 46.457981 0.493734 0.850712 0.180319 
20.305019 -2.039749 46.395329 0.454222 0.870546 0.189293 
20.319620 -2.047380 46.306728 0.608757 0.782934 0.128179 
20.347851 -2.042888 46.234840 0.520041 0.835659 0.176723 
20.361919 -2.051004 46.145531 0.476148 0.856212 0.200463 
20.403250 -2.034861 46.089699 0.387844 0.900050 0.198716 
20.407419 -2.051806 45.988129 0.572548 0.815814 -0.081458 
20.423479 -2.058177 45.901138 0.219161 0.974493 0.048282 
20.446751 -2.058123 45.823009 0.240510 0.960716 0.138489 
20.481689 -2.047695 45.759220 0.091771 0.962570 0.255024 
20.516529 -2.037346 45.695309 0.156195 0.916031 0.369447 
20.568211 -2.011996 45.652161 0.224413 0.930340 0.290010 
20.581301 -2.021041 45.561371 0.439450 0.883560 0.161881 
20.621180 -2.006215 45.503632 0.376642 0.909224 0.177346 
20.627451 -2.021345 45.404350 0.563339 0.821417 0.089014 
20.662460 -2.010871 45.340549 0.465407 0.872233 0.150350 
20.666920 -2.027633 45.238941 0.548131 0.831556 -0.089814 
20.675579 -2.040669 45.142471 0.289646 0.956480 0.035377 
20.701450 -2.038359 45.067268 0.225501 0.958073 0.176763 
20.740919 -2.023918 45.008911 0.011014 0.957263 0.289008 
20.778580 -2.011099 44.948280 0.219856 0.945077 0.241853 
20.814550 -1.999797 44.885540 0.108257 0.967771 0.227374 
20.840851 -1.997114 44.810799 0.302240 0.939341 0.162140 
20.877439 -1.985262 44.748798 0.275982 0.956972 0.089653 
20.879259 -2.004448 44.643600 0.569678 0.821745 -0.014208 
20.901230 -2.005652 44.563389 0.359437 0.909043 0.210822 
20.931589 -1.999370 44.493580 0.390825 0.890226 0.233996 
20.972330 -1.983831 44.436649 0.251490 0.955464 0.154408 
20.980391 -1.997475 44.339039 0.400190 0.915837 0.033037 
21.012569 -1.989585 44.271431 0.098804 0.978015 0.183643 
21.042139 -1.984026 44.200550 0.212628 0.961659 0.173208 
21.078220 -1.972658 44.137760 -0.025868 0.959751 0.279657 
21.118870 -1.957211 44.080650 0.122028 0.955942 0.266992 
21.159901 -1.941429 44.024010 0.258972 0.956064 0.137386 
21.168501 -1.954628 43.926868 0.562285 0.825456 -0.049574 
21.182289 -1.963202 43.836170 0.386714 0.918040 0.087493 
21.206020 -1.962891 43.757851 0.600814 0.797216 0.058910 
21.222269 -1.969281 43.670139 0.401134 0.903802 0.149109 
21.247641 -1.967525 43.593800 0.564166 0.824807 0.037556 
21.259390 -1.977957 43.500389 0.277505 0.946797 0.162990 
21.297550 -1.964762 43.440022 0.363160 0.915048 0.175507 
21.318220 -1.967228 43.357700 0.106608 0.951982 0.286995 
21.367809 -1.943815 43.311630 0.196303 0.941405 0.274267 
21.398211 -1.937573 43.241489 0.109181 0.974372 0.196670 
21.427919 -1.931964 43.170441 0.425379 0.903894 0.045028 
21.441160 -1.941097 43.078701 0.280616 0.952314 0.119807 
21.469450 -1.936762 43.005829 0.539916 0.839563 0.060200 
21.483740 -1.944972 42.915329 0.410734 0.884154 0.222642 
21.523121 -1.930718 42.856350 0.489966 0.841092 0.229126 
21.542660 -1.934236 42.772400 0.251874 0.939697 0.231362 
21.582411 -1.919659 42.713848 0.321896 0.926266 0.195995 
21.604910 -1.920539 42.633560 0.104115 0.951968 0.287954 
21.652321 -1.899099 42.584641 0.097767 0.909762 0.403453 
21.702829 -1.874884 42.539631 0.108492 0.929842 0.351601 
21.731710 -1.870054 42.467331 0.359700 0.893988 0.267211 
21.768089 -1.858513 42.404469 0.376355 0.899039 0.223799 
21.787140 -1.862506 42.319721 0.531939 0.830172 0.166899 
21.824181 -1.850372 42.257671 0.355181 0.926152 0.126845 
21.820311 -1.874939 42.143871 0.513151 0.858051 0.020587 
21.855740 -1.864264 42.079720 0.051575 0.957246 0.284641 
21.893709 -1.851311 42.018780 -0.017711 0.914301 0.404649 
21.966881 -1.806777 42.002399 0.079417 0.935524 0.344220 
21.979099 -1.816935 41.908821 0.169046 0.969955 0.174961 
22.031601 -1.790948 41.866268 0.153611 0.976498 0.151181 
22.039480 -1.805007 41.767139 0.243801 0.969432 0.027617 
22.071800 -1.797142 41.698959 0.281240 0.958292 0.050791 
22.079880 -1.811041 41.599998 0.474687 0.878670 0.051093 
22.112200 -1.803188 41.531761 0.338269 0.933645 0.117814 
22.121180 -1.816300 41.433849 0.571331 0.818182 -0.064483 
22.133570 -1.826355 41.340229 0.298160 0.954336 0.018510 
22.152679 -1.830387 41.255100 0.364237 0.931139 -0.017646 
22.167219 -1.838529 41.164131 0.081375 0.989502 0.119433 
22.209221 -1.821996 41.108089 0.101139 0.985144 0.138785 
22.235649 -1.819469 41.032188 0.031522 0.986772 0.159021 
22.270250 -1.809598 40.966690 0.233540 0.957845 0.167309 
22.300831 -1.803345 40.896049 0.242356 0.964538 0.104548 
22.317551 -1.809564 40.807690 0.561683 0.824248 -0.071600 
22.318581 -1.829892 40.699261 0.485813 0.868291 0.100278 
22.353230 -1.820000 40.633720 0.479341 0.872070 0.098619 
22.356260 -1.838551 40.527748 0.313873 0.937356 0.151152 
22.405621 -1.815431 40.480968 0.179991 0.966189 0.184614 
22.419201 -1.824509 40.388409 0.045497 0.956566 0.287943 
22.486151 -1.785565 40.364128 0.095411 0.955020 0.280774 
22.504660 -1.790220 40.277828 0.212547 0.964433 0.157136 
22.538349 -1.781207 40.210949 0.464767 0.885428 0.003171 
22.534910 -1.805634 40.096451 0.507736 0.860634 0.038892 
22.566681 -1.798366 40.027039 0.427452 0.894751 0.129253 
22.577120 -1.810315 39.930241 0.403081 0.895982 0.186389 
22.626030 -1.787620 39.882790 0.259556 0.944458 0.201570 
22.632240 -1.803396 39.780479 0.402214 0.914935 -0.033446 
22.655861 -1.803490 39.700500 0.061016 0.990506 0.123183 
22.687229 -1.796605 39.630459 0.042678 0.967682 0.248535 
22.742720 -1.767992 39.591431 0.118226 0.970296 0.211064 
22.756399 -1.777069 39.498569 0.346134 0.935003 0.077206 
22.790939 -1.767336 39.432560 0.240638 0.967985 0.071401 
22.794741 -1.785327 39.326908 0.462511 0.886607 -0.003486 
22.822519 -1.781711 39.252110 0.210381 0.970958 0.113935 
22.844610 -1.783226 39.169960 0.267058 0.954517 0.132579 
22.881800 -1.771128 39.107262 0.009823 0.963445 0.267726 
22.923080 -1.755345 39.049831 0.152929 0.955098 0.253774 
22.962280 -1.741439 38.989700 0.132262 0.979802 0.149980 
22.975500 -1.750985 38.895969 0.390847 0.918317 0.062708 
23.007240 -1.743814 38.826172 0.254186 0.947397 0.194497 
23.034241 -1.740937 38.750191 0.493849 0.858041 0.140990 
23.056379 -1.742449 38.667900 0.363346 0.914146 0.179767 
23.086100 -1.737114 38.595409 0.333452 0.927767 0.167506 
23.119539 -1.728437 38.527699 0.108880 0.977467 0.180841 
23.145559 -1.726460 38.450359 0.273686 0.955131 0.113226 
23.175289 -1.721142 38.377800 0.084446 0.979404 0.183401 
23.208191 -1.712962 38.309330 0.226047 0.954328 0.195347 
23.246500 -1.699891 38.247879 0.168919 0.975321 0.142182 
23.259670 -1.709549 38.153728 0.486296 0.872313 -0.050863 
23.272680 -1.719362 38.059330 0.275792 0.959766 0.052800 
23.296690 -1.719230 37.979210 0.497896 0.867235 0.001495 
23.304230 -1.734002 37.877609 0.328430 0.896572 0.297142 
23.363310 -1.702183 37.843071 0.287398 0.899290 0.329667 
23.381470 -1.707364 37.755241 0.144659 0.961223 0.234787 
23.428711 -1.686256 37.705269 0.203623 0.960230 0.191039 
23.445520 -1.692672 37.615608 0.063354 0.981443 0.180984 
23.491131 -1.673040 37.563492 0.323571 0.942251 0.086401 
23.494560 -1.691568 37.456322 0.268894 0.961387 0.058585 
23.528790 -1.682245 37.389301 0.374703 0.927108 -0.008219 
23.524611 -1.707685 37.272079 0.469421 0.882634 -0.024532 
23.552460 -1.704143 37.196659 0.235963 0.963193 0.128765 
23.575371 -1.705079 37.114761 0.273131 0.901504 0.335694 
23.630310 -1.677025 37.074741 0.228690 0.885687 0.404053 
23.655970 -1.675478 36.996399 0.209542 0.872426 0.441549 
23.721790 -1.637566 36.970631 0.117742 0.900681 0.418224 
23.746710 -1.636697 36.891289 0.202328 0.954533 0.218931 
23.787100 -1.621824 36.832199 0.354381 0.928671 0.109473 
23.792761 -1.638420 36.727520 0.423123 0.900293 0.102170 
23.830080 -1.626330 36.664360 0.453183 0.887399 0.084549 
23.827009 -1.650862 36.548119 0.520633 0.851940 -0.056030 
23.850439 -1.651374 36.466660 0.260189 0.960545 0.098256 
23.873329 -1.652394 36.384430 0.360613 0.922161 0.139918 
