46.751068 18.707390 45.258541 0.849310 0.483638 -0.211582 
46.724140 18.662920 45.110291 0.799269 0.584075 -0.141514 
46.728809 18.647169 45.008251 0.448238 0.682012 0.577877 
46.789310 18.682199 44.988041 0.148773 0.287363 0.946197 
46.862129 18.728460 44.985950 0.263224 0.637775 0.723848 
46.889851 18.733681 44.917679 0.522093 0.842002 0.135833 
46.909248 18.731310 44.837151 0.631548 0.774596 0.033878 
46.908600 18.710690 44.727119 0.845418 0.533214 0.030831 
46.929699 18.709860 44.649010 0.707699 0.633088 0.313626 
46.957161 18.714809 44.580212 0.718503 0.667541 0.195302 
46.974361 18.710421 44.496300 0.712885 0.621831 0.324223 
47.014980 18.727350 44.446831 0.537463 0.795608 0.279539 
47.004299 18.697550 44.321770 0.777325 0.601718 -0.183578 
47.001438 18.674850 44.208130 0.362053 0.928486 0.082656 
47.049179 18.698250 44.169079 0.088320 0.988166 0.125412 
47.060711 18.688650 44.076591 0.692939 0.712953 0.107398 
47.076069 18.682529 43.989700 0.847743 0.406253 0.341013 
47.123100 18.705280 43.949570 0.311394 0.575766 0.755994 
47.174240 18.731779 43.915531 0.545304 0.574011 0.610864 
47.202641 18.737551 43.847870 0.683372 0.653007 0.326472 
47.169128 18.686819 43.688541 0.510228 0.828133 0.232085 
47.207829 18.701960 43.636021 0.721508 0.679093 0.135129 
47.209991 18.683750 43.529350 0.736092 0.671788 -0.082882 
47.202431 18.656670 43.408211 0.497351 0.863989 0.078517 
47.238731 18.669600 43.352039 0.181870 0.917033 0.354928 
47.273411 18.681049 43.293461 -0.039835 0.802322 0.595561 
47.334358 18.716480 43.273861 0.315563 0.799674 0.510824 
47.358082 18.717920 43.198990 0.735453 0.655082 0.173135 
47.361580 18.700890 43.094028 0.969852 -0.030485 0.241779 
47.392441 18.708830 43.029690 0.868532 -0.133879 0.477208 
47.425701 18.718969 42.968910 0.886282 -0.007528 0.463085 
47.467140 18.736580 42.920292 0.637851 0.552804 0.536241 
47.494030 18.740891 42.849991 0.547007 0.820955 0.163760 
47.500858 18.726860 42.749779 0.459865 0.873663 0.158862 
47.527359 18.730801 42.678822 0.313560 0.762418 0.566038 
47.591141 18.768829 42.663460 0.549629 0.743090 0.381740 
47.590450 18.747890 42.551899 0.932811 0.340784 -0.117172 
47.591709 18.728729 42.443199 0.928370 0.370299 -0.031737 
44.596981 18.725550 53.296749 0.613006 0.467073 0.637234 
44.633919 18.739590 53.244320 0.661871 0.513454 0.546162 
44.677010 18.759140 53.200420 0.507324 0.766683 0.393471 
44.693291 18.754660 53.119270 0.577423 0.816413 0.007276 
44.690239 18.732849 53.011230 0.813065 0.558056 -0.165826 
44.687019 18.710880 52.902882 0.802939 0.594219 0.046830 
44.704830 18.707750 52.823730 0.857417 0.446175 0.256447 
44.732300 18.713280 52.757980 0.898408 0.431367 0.082381 
44.715889 18.679440 52.631100 0.672263 0.729886 0.123808 
44.750340 18.691210 52.575001 0.689346 0.703079 0.174591 
44.756111 18.677250 52.478920 0.682341 0.573350 0.453520 
44.795460 18.693411 52.429611 0.600431 0.518033 0.609200 
44.840469 18.714649 52.388199 0.253598 0.598010 0.760311 
44.898590 18.747650 52.365101 0.437727 0.692677 0.573230 
44.914688 18.742941 52.283310 0.626876 0.769584 0.121520 
44.933781 18.740910 52.205669 0.534840 0.844937 0.005208 
44.941090 18.728291 52.111519 0.686404 0.696193 -0.210157 
44.910782 18.681881 51.964680 0.596081 0.798080 0.088067 
44.953499 18.701050 51.919971 0.526704 0.829168 0.187253 
44.944248 18.673519 51.802460 0.790242 0.608299 -0.074097 
44.955761 18.664640 51.713989 0.640222 0.691797 0.333966 
44.989208 18.675461 51.656212 0.836640 0.471233 0.279235 
45.012711 18.677340 51.584469 0.509529 0.657212 0.555385 
45.066681 18.706591 51.555462 0.686648 0.597125 0.414676 
45.057320 18.678921 51.437531 0.846999 0.519140 -0.114395 
45.050362 18.653400 51.322922 0.547273 0.804297 0.231513 
45.085991 18.666161 51.268089 0.472424 0.711872 0.519667 
45.131840 18.688101 51.227619 0.453176 0.469230 0.757928 
45.183048 18.714870 51.194698 0.686548 0.538704 0.488312 
45.182739 18.695290 51.089249 0.832082 0.543958 -0.108394 
45.148701 18.645361 50.936249 0.770251 0.599329 0.217988 
45.181881 18.655899 50.877850 0.900036 0.404853 0.161334 
45.190239 18.644079 50.784439 0.871056 0.427721 0.241490 
45.220570 18.652040 50.721981 0.521099 0.750678 0.406126 
45.255199 18.663870 50.665569 0.162306 0.873646 0.458693 
45.299591 18.684469 50.622929 -0.032311 0.823913 0.565794 
45.353569 18.713720 50.593849 0.418765 0.736821 0.530783 
45.377258 18.715691 50.521950 0.799082 0.590801 0.111454 
45.381229 18.699881 50.422131 0.490973 0.861307 0.130751 
45.402889 18.700020 50.347301 0.747389 0.641719 0.172063 
45.426788 18.702150 50.275600 0.775501 0.609933 0.163032 
45.446602 18.700600 50.198071 0.744840 0.635750 0.202571 
45.460651 18.693850 50.112350 0.946599 0.310570 0.086581 
45.473450 18.685961 50.024818 0.989832 0.140449 0.022503 
45.489811 18.681280 49.942299 0.970026 0.227655 0.084981 
45.453251 18.628870 49.784599 0.936173 0.319396 -0.146856 
45.456322 18.612181 49.683071 0.823054 0.563923 0.067624 
45.466370 18.601770 49.591412 0.453760 0.628152 0.632081 
45.535931 18.645041 49.584309 0.106302 0.766392 0.633517 
45.569859 18.656170 49.526562 0.152753 0.843913 0.514274 
45.619362 18.681351 49.490971 0.169827 0.699828 0.693830 
45.673229 18.710470 49.461601 0.406041 0.768109 0.495116 
45.691750 18.707689 49.381901 0.707063 0.706574 -0.028541 
45.692280 18.688660 49.276489 0.386881 0.910416 0.146512 
45.727821 18.701220 49.220970 0.346081 0.875982 0.335981 
45.758801 18.709669 49.158920 0.740962 0.617863 0.263098 
45.783569 18.712500 49.087978 0.784486 0.599758 0.157710 
45.787670 18.696659 48.987499 0.784480 0.597040 0.167736 
45.814190 18.701071 48.918999 0.442738 0.803068 0.398828 
45.852901 18.716471 48.867901 0.449785 0.875651 0.175867 
45.855808 18.699539 48.765579 0.680858 0.679271 0.273905 
45.895641 18.715960 48.716049 0.595969 0.706390 0.381883 
45.919739 18.718149 48.643990 0.690084 0.692654 0.209799 
45.943062 18.719641 48.570770 0.870137 0.490776 -0.044730 
45.912991 18.672831 48.420971 0.975411 0.182497 0.123565 
45.942009 18.679449 48.355831 0.902586 0.211157 0.375167 
45.979408 18.693661 48.302711 0.727702 0.610386 0.312856 
45.974789 18.669840 48.189232 0.509486 0.554649 0.657866 
46.041229 18.710300 48.177780 0.246803 0.245232 0.937523 
46.105560 18.748871 48.163342 0.531991 0.655267 0.536294 
46.097462 18.721880 48.044739 0.823997 0.540784 -0.169064 
46.058029 18.666519 47.880981 0.868241 0.439001 -0.231164 
46.031570 18.622860 47.735760 0.945155 0.306392 -0.113164 
46.036739 18.607840 47.636009 0.830360 0.284183 0.479314 
46.093830 18.639839 47.611050 0.511590 0.538673 0.669408 
46.118259 18.642250 47.539001 0.462388 0.718377 0.519743 
46.160591 18.660860 47.492729 0.271565 0.628795 0.728608 
46.221081 18.695940 47.472698 0.248411 0.724046 0.643467 
46.249210 18.701700 47.405949 0.709774 0.694054 0.120458 
46.252121 18.684580 47.302731 0.479423 0.877408 -0.017578 
46.275848 18.686331 47.229549 0.475289 0.874104 -0.100214 
46.262402 18.654369 47.102551 0.597340 0.782026 -0.177819 
46.262058 18.634279 46.994450 0.756988 0.651519 -0.049917 
46.279591 18.630390 46.912159 0.708104 0.644410 0.288660 
46.307999 18.636351 46.845581 0.826631 0.453582 0.333085 
46.336060 18.641991 46.778481 0.776458 0.529329 0.341942 
46.360260 18.644131 46.705761 0.805437 0.572529 0.153238 
46.368801 18.632059 46.610291 0.459348 0.734690 0.499230 
46.427502 18.665489 46.587589 0.408689 0.696638 0.589635 
46.454529 18.670191 46.518909 0.716720 0.648563 0.256279 
46.473610 18.667660 46.438641 0.859984 0.495977 0.120140 
46.471249 18.645651 46.327160 0.838076 0.479444 0.260312 
46.516079 18.666479 46.284260 0.444559 0.656693 0.609197 
46.552711 18.679880 46.229450 0.740466 0.644573 0.190359 
46.533581 18.642620 46.093410 0.606265 0.794792 0.027354 
46.560379 18.647051 46.024181 0.514391 0.848861 0.121803 
46.583450 18.648109 45.949501 0.404201 0.914665 0.003276 
46.586349 18.630831 45.845379 0.445223 0.893009 0.065667 
46.615879 18.637739 45.780048 0.662866 0.737412 0.129739 
46.617168 18.618971 45.673470 0.459083 0.703078 0.543070 
46.687778 18.663219 45.668091 0.160257 0.683453 0.712186 
46.727711 18.679581 45.617920 0.434625 0.792740 0.427392 
46.748039 18.678101 45.539051 0.827497 0.559637 -0.045332 
46.732319 18.643829 45.407410 0.870266 0.289383 0.398615 
46.785309 18.672060 45.376289 0.891430 0.185347 0.413520 
46.778290 18.645679 45.257259 0.900844 0.425803 -0.084692 
46.776260 18.623831 45.145481 0.607423 0.794359 0.005600 
46.801029 18.626360 45.072922 0.311721 0.915809 0.253229 
46.828560 18.631390 45.004372 0.133888 0.676650 0.724030 
46.921009 18.695539 45.031109 0.488813 0.504031 0.712050 
46.928181 18.682039 44.932671 0.692527 0.698384 0.180736 
46.950142 18.681990 44.855900 0.865720 0.498502 -0.045006 
46.936588 18.649590 44.726891 0.858510 0.470420 0.204121 
46.975182 18.664680 44.674500 0.711040 0.534489 0.456885 
47.002689 18.669670 44.605782 0.663943 0.717460 0.210785 
47.004131 18.650900 44.498661 0.353186 0.821922 0.446882 
47.073860 18.694370 44.492081 0.486188 0.838709 0.245335 
47.059380 18.661070 44.361408 0.490674 0.867996 0.076299 
47.103741 18.681400 44.317429 0.367668 0.885731 0.283374 
47.119881 18.676001 44.231812 0.655375 0.753351 -0.054267 
47.101860 18.639429 44.095711 0.768932 0.625628 -0.131656 
47.105190 18.622311 43.991039 0.673413 0.622426 0.398875 
47.150242 18.643259 43.947979 0.596435 0.411161 0.689356 
47.189899 18.659281 43.896950 0.869527 0.076677 0.487897 
47.227261 18.673220 43.842522 0.881475 0.158853 0.444711 
47.234039 18.659220 43.742802 0.788081 0.615344 -0.016745 
47.219681 18.625919 43.611721 0.736556 0.653516 0.174364 
47.258820 18.641451 43.559830 0.690383 0.707407 0.151480 
47.255699 18.618380 43.445259 0.741903 0.631290 0.225951 
47.301571 18.640060 43.403309 -0.032606 0.758593 0.650749 
47.356529 18.670031 43.374840 -0.056554 0.875984 0.479012 
47.394390 18.684389 43.320992 0.335007 0.905348 0.260990 
47.418411 18.686100 43.246590 0.362159 0.921791 0.138353 
47.360359 18.612789 43.050152 0.866899 -0.191528 0.460221 
47.396412 18.625460 42.993488 0.759833 0.388063 0.521595 
47.436871 18.642179 42.943409 0.341825 0.538274 0.770335 
47.497231 18.677080 42.922932 0.405306 0.562186 0.720884 
47.544559 18.700069 42.883072 0.413818 0.724780 0.550862 
47.578751 18.711050 42.823639 0.524555 0.789559 0.318494 
47.609249 18.718639 42.758671 0.194898 0.950007 0.243929 
47.617760 18.706110 42.660900 0.859890 0.509282 -0.034957 
47.587841 18.658400 42.505680 0.907867 0.417907 -0.033629 
47.596218 18.645729 42.407558 0.890166 0.455026 0.023582 
44.631950 18.672270 53.307381 0.722968 0.427705 0.542574 
44.665779 18.683519 53.250629 0.461813 0.578234 0.672588 
44.710880 18.704880 53.209530 0.744225 0.500808 0.441951 
44.735859 18.708179 53.140461 0.864134 0.492390 0.104042 
44.721809 18.676479 53.017120 0.752539 0.640657 -0.152458 
44.717720 18.653700 52.907551 0.861456 0.504540 0.057742 
44.735661 18.650681 52.828571 0.924128 0.341522 0.171318 
44.750740 18.645069 52.745571 0.869820 0.458192 0.182958 
44.777012 18.649509 52.678120 0.768958 0.623126 0.142890 
44.779900 18.632950 52.578060 0.851097 0.501497 0.155353 
44.807999 18.639021 52.513088 0.588385 0.662463 0.463624 
44.847969 18.655729 52.464649 0.268188 0.781656 0.563107 
44.881790 18.666920 52.407650 0.301275 0.687070 0.661187 
44.939411 18.699480 52.383839 0.323244 0.720189 0.613874 
44.969311 18.707150 52.321339 0.397268 0.877244 0.269482 
44.997501 18.713280 52.256439 0.629520 0.776962 -0.005953 
44.974319 18.673260 52.119659 0.840567 0.474921 -0.260570 
44.965759 18.646351 52.003220 0.695707 0.716195 0.055284 
44.989120 18.648109 51.931419 0.707363 0.705369 0.045737 
44.986820 18.626810 51.823639 0.639272 0.768525 -0.026471 
45.005749 18.624580 51.745560 0.771897 0.629146 0.091378 
45.020031 18.618160 51.660912 0.568099 0.772216 0.284512 
45.049831 18.625690 51.598000 0.588254 0.737451 0.331849 
45.069859 18.624430 51.521351 0.844914 0.528288 0.083864 
45.087200 18.620750 51.440910 0.671097 0.714482 0.197847 
45.124020 18.634569 51.387779 0.542801 0.799913 0.255943 
45.136589 18.626591 51.300560 0.661779 0.728809 0.175744 
45.152531 18.621620 51.218029 0.414406 0.650050 0.636948 
45.218182 18.661381 51.205421 0.618210 0.697064 0.363205 
45.201759 18.627279 51.077290 0.863303 0.469796 -0.184390 
45.200150 18.606501 50.969940 0.881372 0.455009 -0.127079 
45.183701 18.572330 50.841579 0.941723 0.282123 0.183206 
45.216042 18.582100 50.781971 0.732075 0.365614 0.574798 
45.260448 18.602730 50.739361 0.305431 0.639246 0.705745 
45.304340 18.622890 50.696030 0.067059 0.803733 0.591200 
45.354698 18.648880 50.661831 0.221745 0.844851 0.486883 
45.382160 18.654249 50.595291 0.682796 0.641700 0.349301 
45.415699 18.665070 50.537300 0.487658 0.759032 0.431347 
45.458290 18.684059 50.492130 0.604286 0.764251 0.225296 
45.452209 18.659180 50.378052 0.890246 0.452637 -0.050814 
45.466080 18.652260 50.292160 0.867572 0.453782 0.203471 
45.485840 18.650650 50.214550 0.805467 0.581938 0.112120 
45.486359 18.631680 50.109650 0.926344 0.355008 -0.125922 
45.460732 18.589109 49.967590 0.938115 0.340446 0.063542 
45.479931 18.586969 49.889050 0.961057 0.273979 -0.036131 
45.469028 18.557659 49.767738 0.966519 0.254774 -0.030524 
45.486370 18.553810 49.686451 0.603357 0.656262 0.453079 
45.534401 18.577669 49.648781 0.065899 0.693891 0.717058 
45.590111 18.608459 49.622009 0.194931 0.631951 0.750094 
45.639359 18.633421 49.586079 0.307378 0.794853 0.523190 
45.661072 18.633511 49.510948 0.355462 0.738899 0.572429 
45.719231 18.666510 49.487701 0.479074 0.765859 0.428892 
45.714352 18.642580 49.374641 0.847996 0.461861 0.259976 
45.756779 18.661369 49.328960 0.367806 0.802369 0.470023 
45.773621 18.657040 49.246769 0.731338 0.679333 0.060422 
45.778351 18.641760 49.147270 0.832964 0.515752 0.200428 
45.807209 18.648279 49.082161 0.906290 0.396085 0.147495 
45.815350 18.636070 48.987431 0.482498 0.686936 0.543428 
45.885330 18.679741 48.981041 0.447814 0.644533 0.619709 
45.903709 18.676781 48.900902 0.742811 0.658038 0.123359 
45.911400 18.664141 48.805420 0.790524 0.600439 0.120607 
45.939220 18.669701 48.738708 0.867417 0.397389 0.299450 
45.960949 18.669741 48.663261 0.950530 0.285755 0.121803 
45.932369 18.624250 48.515640 0.914960 0.368570 -0.164330 
45.923649 18.596720 48.396412 0.800346 0.558947 0.216852 
45.956409 18.606720 48.336620 0.879210 0.185676 0.438765 
45.995701 18.622629 48.286201 0.747340 0.480757 0.458646 
46.015331 18.620729 48.207520 0.540653 0.571242 0.617557 
46.073780 18.653980 48.184601 0.183199 0.312755 0.931999 
46.127140 18.682619 48.154381 0.714968 0.563280 0.414170 
46.122391 18.658630 48.040581 0.815929 0.559812 -0.144463 
46.077301 18.598089 47.868649 0.909012 0.325641 -0.260105 
46.051941 18.555389 47.724991 0.884921 0.453921 -0.104266 
46.059090 18.542139 47.628059 0.627924 0.486181 0.607733 
46.119740 18.577360 47.608219 0.431943 0.405643 0.805530 
46.163021 18.596849 47.563351 0.243668 0.738025 0.629242 
46.203690 18.613960 47.514709 0.123558 0.715760 0.687329 
46.263340 18.648291 47.493469 0.397604 0.696782 0.596998 
46.291161 18.653761 47.426281 0.597517 0.741618 0.304919 
46.325451 18.665079 47.368408 0.372080 0.919318 0.128104 
46.318138 18.638670 47.250351 0.687050 0.701816 -0.188196 
46.317230 18.618050 47.141499 0.733397 0.652440 -0.190922 
46.294769 18.577860 47.001369 0.771011 0.636022 -0.031919 
46.311790 18.573490 46.918331 0.842878 0.510742 0.169408 
46.334572 18.574329 46.843590 0.827439 0.442955 0.345160 
46.364208 18.581409 46.778782 0.560408 0.706329 0.432483 
46.396450 18.590830 46.717709 0.778646 0.599795 0.184273 
46.416340 18.589029 46.638691 0.370636 0.771563 0.517029 
46.462460 18.611059 46.597740 0.688907 0.613025 0.386791 
46.474461 18.602091 46.507221 0.710024 0.636274 0.301697 
46.510738 18.615170 46.451939 0.850831 0.509963 0.126587 
46.504230 18.589371 46.334419 0.779042 0.491091 0.389773 
46.549938 18.611000 46.292801 0.584113 0.525831 0.618316 
46.578758 18.617290 46.226608 0.849512 0.482384 0.213624 
46.608219 18.624161 46.161320 0.681353 0.701424 0.209194 
46.616920 18.612141 46.065750 0.485646 0.858837 0.162934 
46.645069 18.617800 45.998489 0.676656 0.736196 0.012328 
46.640141 18.593380 45.882950 0.563186 0.825761 -0.030651 
46.649849 18.582251 45.788700 0.568357 0.812175 0.131692 
46.687660 18.596680 45.735439 0.023058 0.905235 0.424286 
46.726109 18.611700 45.683109 0.252507 0.753912 0.606512 
46.787010 18.647129 45.663582 0.420860 0.783593 0.457012 
46.789509 18.629419 45.558659 0.861640 0.471493 -0.187805 
46.760380 18.582899 45.407379 0.891367 0.438109 0.116301 
46.782059 18.582640 45.330410 0.879946 0.404999 0.248337 
46.812641 18.590460 45.266430 0.841506 0.510176 0.177730 
46.825581 18.582199 45.176559 0.786197 0.582266 0.207028 
46.857800 18.591520 45.114941 0.427260 0.792455 0.435275 
46.890251 18.601030 45.053638 0.275162 0.764869 0.582461 
46.928841 18.616140 45.001331 0.467853 0.615651 0.634103 
46.983952 18.646290 44.973270 0.265509 0.937855 0.223458 
46.961639 18.605881 44.831440 0.875452 0.464942 -0.131956 
46.967411 18.591061 44.730820 0.926958 0.339977 0.158633 
46.996342 18.597340 44.664211 0.672279 0.255419 0.694840 
47.055302 18.631001 44.641781 0.202236 0.663520 0.720307 
47.098202 18.650021 44.595718 0.339411 0.897306 0.282211 
47.095840 18.627750 44.482960 0.703907 0.705347 -0.083667 
47.108959 18.619579 44.392948 0.531690 0.827263 0.181499 
47.137711 18.625681 44.325958 0.596899 0.776868 0.200469 
47.154881 18.621201 44.241840 0.753753 0.651336 -0.087276 
47.149971 18.596560 44.125092 0.486617 0.864461 -0.126141 
47.155231 18.581190 44.023281 0.403212 0.904637 0.138032 
47.187469 18.590441 43.961300 0.646050 0.737666 0.196133 
47.193180 18.575460 43.860062 0.735302 0.509151 0.447321 
47.239830 18.597870 43.819340 0.880979 0.289096 0.374565 
47.260120 18.596180 43.739590 0.955178 0.284187 0.082907 
47.277161 18.591539 43.655010 0.652395 0.722730 0.228125 
47.287739 18.580971 43.560799 0.791147 0.604726 -0.091615 
47.276981 18.550900 43.434891 0.427744 0.724653 0.540290 
47.359348 18.605930 43.447079 -0.254874 0.643925 0.721387 
47.418369 18.639629 43.424660 0.219366 0.810805 0.542655 
47.448391 18.646811 43.359192 0.473615 0.785047 0.399238 
47.491341 18.665819 43.312920 0.505665 0.804359 0.311945 
47.460579 18.597120 43.046829 0.311991 0.949640 0.029062 
47.473190 18.628950 43.175812 0.592225 0.773299 -0.226447 
47.515839 18.627380 43.018791 0.397916 0.895120 0.201055 
47.530640 18.620600 42.930500 0.535636 0.679464 0.501421 
47.583160 18.648359 42.898392 0.754033 0.391703 0.527260 
47.601799 18.645081 42.815762 0.447603 0.418081 0.790480 
47.688831 18.704420 42.835110 -0.151935 0.469473 0.869776 
47.635551 18.614941 42.534561 0.719855 0.684784 -0.113486 
47.646889 18.645691 42.662060 0.800595 0.553807 -0.228790 
47.645279 18.603479 42.438450 0.669675 0.742364 -0.020749 
44.659359 18.612221 53.307529 0.220990 0.516068 0.827549 
44.718578 18.646240 53.286030 0.644720 0.443254 0.622786 
44.731091 18.638359 53.199669 0.917896 0.247208 0.310411 
44.757149 18.642620 53.132080 0.902097 0.370336 0.221521 
44.782612 18.646351 53.063660 0.669278 0.708482 0.223876 
44.747150 18.595381 52.910450 0.810010 0.585466 -0.033359 
44.751862 18.580469 52.813061 0.757841 0.616039 0.214878 
44.785400 18.591419 52.755730 0.746608 0.626113 0.224855 
44.788509 18.575041 52.656010 0.867618 0.489082 0.089651 
44.812752 18.577641 52.585678 0.689001 0.664138 0.290168 
44.836399 18.579700 52.514511 0.520482 0.537101 0.663793 
44.906769 18.623711 52.508492 0.379799 0.579828 0.720799 
44.929611 18.625040 52.436161 0.236426 0.765164 0.598855 
44.987888 18.658211 52.413300 0.317741 0.731863 0.602841 
45.022591 18.670191 52.357521 0.747971 0.607307 0.267802 
45.031509 18.658991 52.265671 0.908723 0.407190 -0.091758 
45.004711 18.615669 52.123798 0.839753 0.510063 -0.186146 
45.006130 18.597700 52.021332 0.745537 0.639698 0.186980 
45.043869 18.612391 51.969662 0.715426 0.653974 0.245936 
45.042389 18.591801 51.863041 0.729826 0.674134 -0.113567 
45.029289 18.560749 51.740059 0.464988 0.831658 0.303532 
45.095459 18.600990 51.728180 0.196701 0.896822 0.396256 
45.110691 18.595409 51.644840 0.487776 0.872351 0.032828 
45.121601 18.585930 51.555420 0.683648 0.729476 -0.022140 
45.131260 18.575319 51.464180 0.792266 0.594640 0.136812 
45.152710 18.575319 51.389469 0.627200 0.712386 0.314845 
45.184700 18.584789 51.329540 0.433362 0.789652 0.434335 
45.234180 18.610010 51.294201 0.375358 0.761286 0.528725 
45.253639 18.608200 51.216621 0.889137 0.456292 -0.035104 
45.234760 18.571850 51.084999 0.820707 0.523881 -0.228009 
45.204811 18.525511 50.937698 0.911956 0.396530 -0.105354 
45.215271 18.515551 50.847260 0.892193 0.413022 0.182769 
45.242401 18.520611 50.780270 0.539582 0.321744 0.778031 
45.312481 18.564381 50.773899 -0.166800 0.523829 0.835333 
45.373520 18.600000 50.754799 0.023184 0.783595 0.620839 
45.412201 18.615471 50.704121 0.509561 0.811308 0.286579 
45.426868 18.609289 50.619511 0.504746 0.824177 0.256834 
45.460079 18.619829 50.561081 0.725989 0.625528 0.285755 
45.475922 18.614679 50.478050 0.979572 0.197375 -0.038486 
45.459660 18.580580 50.349529 0.958727 0.230241 0.166827 
45.491020 18.589430 50.288380 0.809218 0.366770 0.458962 
45.524971 18.600611 50.230888 0.917284 0.357077 0.176313 
45.512989 18.570330 50.108250 0.931796 0.349720 -0.097218 
45.510921 18.548981 49.999580 0.820356 0.561288 -0.109414 
45.501678 18.521151 49.880680 0.915479 0.358995 -0.181715 
45.483551 18.485279 49.749081 0.648212 0.695533 0.309927 
45.533611 18.510969 49.714272 0.315462 0.716782 0.621858 
45.573448 18.527430 49.664951 0.241430 0.660079 0.711342 
45.624130 18.553690 49.631050 0.127784 0.606242 0.784947 
45.684181 18.588400 49.610481 0.371045 0.699127 0.611184 
45.715019 18.596741 49.548359 0.151537 0.814260 0.560372 
45.766930 18.624100 49.516220 0.445217 0.771708 0.454147 
45.733101 18.573971 49.361889 0.148947 0.571815 0.806748 
45.806568 18.620831 49.360481 0.586039 0.522729 0.619122 
45.815800 18.609600 49.267429 0.899952 0.433877 0.042863 
45.822849 18.596399 49.171230 0.915284 0.400483 0.043229 
45.831291 18.584440 49.076962 0.698398 0.640665 0.319044 
45.868061 18.598110 49.023129 0.366263 0.766514 0.527549 
45.900749 18.608070 48.963451 0.608495 0.628652 0.484285 
45.940060 18.624020 48.913231 0.857432 0.488821 0.160824 
45.928452 18.593889 48.790112 0.860866 0.499353 0.097754 
45.943390 18.587780 48.704929 0.970207 0.220390 0.100636 
45.958752 18.582041 48.620319 0.962873 0.248765 0.104836 
45.984089 18.585329 48.549969 0.709868 0.692656 0.127731 
45.981819 18.563610 48.439991 0.686918 0.716215 -0.123206 
45.971260 18.534361 48.318050 0.532539 0.636597 0.557805 
46.047668 18.583891 48.320900 0.465633 0.672467 0.575304 
46.049210 18.565599 48.216251 0.384039 0.732345 0.562304 
46.117050 18.607361 48.206829 -0.032205 0.565107 0.824389 
46.178719 18.643539 48.188560 0.422905 0.780528 0.460356 
46.176731 18.622030 48.078739 0.751581 0.631364 -0.191064 
46.100880 18.533541 47.862499 0.789899 0.569130 -0.228367 
46.092930 18.506599 47.743900 0.810888 0.574346 -0.112196 
46.104080 18.496950 47.652740 0.380672 0.786111 0.486948 
46.155380 18.523701 47.619419 0.127299 0.596681 0.792317 
46.223949 18.566120 47.611031 0.105938 0.659297 0.744382 
46.265308 18.583870 47.563412 0.451298 0.650374 0.611019 
46.304470 18.599621 47.512611 0.410537 0.758357 0.506314 
46.331970 18.604780 47.444939 0.254698 0.859273 0.443598 
46.385948 18.633970 47.415539 0.429435 0.882072 0.193738 
46.373760 18.603109 47.290451 0.693804 0.683561 -0.226672 
46.340439 18.553040 47.134682 0.765621 0.621743 -0.165108 
46.347111 18.539270 47.036720 0.804739 0.584371 -0.104429 
46.342880 18.515579 46.922890 0.870672 0.479185 0.110960 
46.368290 18.518810 46.851971 0.485638 0.620631 0.615608 
46.429890 18.554899 46.833500 0.537939 0.666260 0.516450 
46.423481 18.529200 46.716370 0.551294 0.763682 0.335953 
46.477669 18.558559 46.687130 0.177802 0.876903 0.446573 
46.500031 18.558990 46.611691 0.738646 0.646424 0.191150 
46.530220 18.566549 46.547600 0.656055 0.728456 0.197339 
46.524422 18.541361 46.431141 0.887942 0.457151 -0.050712 
46.538811 18.534531 46.343990 0.661039 0.548881 0.511622 
46.591690 18.562691 46.312820 0.500281 0.665777 0.553588 
46.602161 18.552280 46.219898 0.846687 0.501961 0.176512 
46.625912 18.553940 46.146278 0.507797 0.743130 0.435776 
46.675159 18.578800 46.109810 0.560252 0.797654 0.223308 
46.668949 18.553181 45.992439 0.791494 0.595386 0.138027 
46.708561 18.569260 45.941872 0.674037 0.702394 0.228729 
46.706509 18.547430 45.830479 0.553837 0.740880 0.379949 
46.764400 18.580139 45.806568 0.399930 0.729314 0.555119 
46.777191 18.571791 45.716770 0.546676 0.684852 0.481792 
46.826130 18.596350 45.679779 0.762232 0.531481 0.369501 
46.808559 18.560329 45.545460 0.809362 0.551385 -0.202256 
46.803669 18.535851 45.429649 0.810332 0.584908 -0.035277 
46.823101 18.533520 45.349369 0.804185 0.564906 0.184843 
46.836811 18.525949 45.260658 0.918660 0.388165 0.073431 
46.847149 18.515320 45.166981 0.619338 0.562097 0.548149 
46.904831 18.547819 45.142681 0.214695 0.708955 0.671780 
46.943459 18.562969 45.090462 0.108610 0.841981 0.528462 
46.995899 18.590691 45.058498 -0.096993 0.759832 0.642844 
47.060959 18.629940 45.045101 0.366492 0.699182 0.613863 
47.007690 18.561260 44.857780 0.738921 0.646454 -0.189981 
46.982800 18.518450 44.712059 0.863792 0.359810 0.352704 
47.022179 18.534250 44.660801 0.456019 0.210105 0.864814 
47.093109 18.578840 44.655979 0.167601 0.275741 0.946508 
47.147511 18.608351 44.626869 0.412651 0.738510 0.533219 
47.164219 18.603460 44.542221 0.526444 0.849887 -0.023437 
47.164829 18.583870 44.433781 0.248822 0.965708 0.074128 
47.202221 18.597839 44.379551 0.380710 0.924142 0.031950 
47.202080 18.577539 44.269890 0.598930 0.798295 0.063308 
47.240108 18.592100 44.216560 0.572960 0.808859 0.132150 
47.232819 18.565250 44.096241 0.579392 0.813418 -0.051537 
47.247398 18.558359 44.008171 0.601034 0.798892 -0.023034 
47.251240 18.541651 43.904171 0.586353 0.809878 0.016957 
47.261978 18.531240 43.810329 0.926457 0.376322 -0.007700 
47.263481 18.512369 43.702740 0.661655 0.529558 0.530831 
47.324970 18.548340 43.683979 0.454043 0.709757 0.538600 
47.342861 18.544451 43.600609 0.537769 0.841829 0.046137 
47.355068 18.535339 43.508770 -0.036839 0.935992 0.350087 
47.417530 18.572201 43.491459 0.077666 0.741401 0.666552 
47.463169 18.593670 43.449200 0.417958 0.780444 0.464992 
47.484482 18.592880 43.370800 0.581149 0.680408 0.446442 
47.529819 18.614071 43.328079 0.790114 0.535765 0.297785 
47.535728 18.599190 43.226730 0.796376 0.592457 0.121571 
47.564240 18.584641 43.048679 0.568840 0.822164 -0.021634 
47.572948 18.612940 43.171909 0.924899 0.315908 0.211576 
47.582272 18.580820 42.965221 0.787795 0.611499 0.073813 
47.588779 18.566429 42.864552 0.652344 0.537366 0.534495 
47.646042 18.598520 42.839481 0.131954 0.376046 0.917157 
47.707020 18.634020 42.819981 0.754660 -0.023167 0.655706 
47.685589 18.594021 42.677521 0.916171 0.378125 -0.132859 
47.681740 18.570110 42.561180 0.852100 0.509485 -0.119793 
44.701691 18.565559 53.328388 0.834339 0.299378 0.462873 
44.720428 18.563240 53.250679 0.764426 0.471946 0.439227 
44.758080 18.577909 53.199219 0.792207 0.488641 0.365565 
44.777760 18.576429 53.122761 0.696483 0.638559 0.327344 
44.804508 18.581310 53.056110 0.760477 0.648705 0.029253 
44.794659 18.553301 52.938511 0.588408 0.800067 -0.116913 
44.805340 18.543720 52.849411 0.449487 0.888542 0.091950 
44.829239 18.546009 52.778679 0.658399 0.752422 0.019297 
44.831020 18.528419 52.677101 0.583849 0.801595 0.128710 
44.862831 18.537809 52.617340 0.597578 0.781912 0.177523 
44.870991 18.525930 52.524551 0.593559 0.514004 0.619264 
44.933578 18.562981 52.507690 0.118579 0.438570 0.890840 
44.993019 18.597191 52.486450 0.336761 0.631611 0.698327 
45.026192 18.607800 52.428551 0.711155 0.591878 0.379394 
45.038750 18.599859 52.341808 0.961686 0.269472 0.050456 
45.053871 18.594219 52.258621 0.923175 0.384335 -0.005854 
45.043560 18.565689 52.139790 0.851046 0.499172 -0.162936 
45.038769 18.542120 52.028629 0.908462 0.394598 0.137802 
45.065910 18.547260 51.962109 0.853512 0.444805 0.271416 
45.085739 18.545820 51.885319 0.788611 0.609968 0.077669 
45.101219 18.540449 51.802399 0.182065 0.925411 0.332365 
45.141159 18.557110 51.753769 0.523617 0.789800 0.319440 
45.168369 18.562300 51.687260 0.682953 0.725419 0.085692 
45.161549 18.536831 51.572929 0.770856 0.627909 -0.107294 
45.162640 18.518480 51.469639 0.554701 0.784088 0.278413 
45.210430 18.542200 51.431961 0.471316 0.812406 0.343305 
45.219601 18.531111 51.339939 0.649595 0.598484 0.468875 
45.268799 18.556080 51.304211 0.842121 0.316905 0.436351 
45.273331 18.540810 51.205608 0.978286 0.206856 0.012956 
45.284512 18.531500 51.116299 0.844931 0.534420 0.022047 
45.245281 18.476749 50.955898 0.756721 0.634905 -0.155786 
45.237129 18.450001 50.839211 0.688196 0.697665 0.199125 
45.272030 18.462061 50.783192 0.109483 0.611862 0.783351 
45.363491 18.525129 50.807011 -0.296848 0.543025 0.785497 
45.424480 18.560720 50.787849 0.103284 0.825492 0.554883 
45.453011 18.567030 50.722839 0.530726 0.800574 0.278228 
45.486431 18.577749 50.664742 0.658950 0.727632 0.190620 
45.489910 18.561460 50.564270 0.849418 0.525046 -0.053064 
45.477970 18.531219 50.441898 0.922605 0.363829 -0.128172 
45.484661 18.517799 50.345852 0.922874 0.316023 0.220077 
45.518040 18.528460 50.287552 0.942373 0.134351 0.306404 
45.513760 18.505110 50.175850 0.993341 0.069230 0.092091 
45.538841 18.508261 50.105728 0.978145 0.169928 0.119824 
45.539600 18.489450 50.001068 0.970955 0.237421 -0.029612 
45.528912 18.460270 49.880081 0.890866 0.450594 -0.057649 
45.547428 18.457479 49.800522 0.590028 0.755482 0.284804 
45.576012 18.463770 49.735210 0.414486 0.661530 0.624964 
45.634720 18.497280 49.712719 0.079991 0.655239 0.751175 
45.681412 18.519930 49.673161 0.432241 0.578085 0.692088 
45.722439 18.537479 49.625561 0.203853 0.647146 0.734606 
45.780460 18.570370 49.602131 0.590591 0.622460 0.513562 
45.793259 18.562380 49.514301 0.942562 0.319793 0.096482 
45.789902 18.539761 49.403381 0.712000 0.668125 0.216021 
45.814529 18.542459 49.332321 0.951952 0.240413 0.189710 
45.832821 18.539410 49.252190 0.939068 0.331636 0.090385 
45.829971 18.517220 49.141819 0.704234 0.580404 0.408883 
45.885731 18.548071 49.115139 0.306726 0.712839 0.630698 
45.920349 18.559771 49.058220 0.153896 0.887456 0.434440 
45.960941 18.576900 49.009869 0.600382 0.789398 0.128037 
45.950062 18.547409 48.887840 0.701565 0.707283 0.086932 
45.984692 18.559111 48.830891 0.478519 0.876236 0.056834 
45.969810 18.525980 48.703011 0.892273 0.450904 -0.023108 
45.980461 18.515961 48.611641 0.882767 0.333220 0.331190 
46.022850 18.534679 48.565720 0.840115 0.395965 0.370701 
46.029621 18.521120 48.468700 0.851051 0.524931 -0.012679 
46.033409 18.504850 48.367340 0.383273 0.834633 0.395589 
46.077110 18.524759 48.323269 0.458617 0.707228 0.538051 
46.122181 18.545891 48.281139 0.108983 0.823547 0.556680 
46.161831 18.562120 48.231220 0.246256 0.620787 0.744299 
46.223282 18.598110 48.212669 0.752369 0.441382 0.489002 
46.202740 18.559750 48.076141 0.946174 0.292244 -0.139101 
46.151569 18.493580 47.895390 0.829614 0.495078 -0.258144 
46.125462 18.450121 47.750622 0.699093 0.702816 0.131599 
46.168350 18.469259 47.705212 0.390618 0.763750 0.513909 
46.201290 18.479361 47.645439 0.258390 0.615063 0.744938 
46.262772 18.515369 47.626839 0.434355 0.514346 0.739448 
46.292122 18.522209 47.561878 0.334080 0.591147 0.734123 
46.367390 18.570740 47.563221 0.075593 0.729884 0.679378 
46.404770 18.584869 47.509850 0.292585 0.884862 0.362509 
46.428600 18.586700 47.436901 0.834756 0.549462 -0.035699 
46.412979 18.552679 47.306831 0.857068 0.465199 -0.221414 
46.389221 18.511250 47.164879 0.831188 0.504289 -0.234134 
46.368061 18.472170 47.026611 0.951192 0.293930 -0.094013 
46.375141 18.458731 46.929161 0.863840 0.439545 0.246130 
46.408951 18.469570 46.870392 0.672296 0.333183 0.661066 
46.452911 18.489651 46.826351 0.737357 0.393308 0.549194 
46.485100 18.499020 46.765209 0.295696 0.745406 0.597440 
46.536789 18.526110 46.732380 0.472316 0.783077 0.404610 
46.532810 18.502581 46.618679 0.612537 0.758071 0.223889 
46.571930 18.518240 46.567551 0.729717 0.668900 0.141729 
46.564110 18.491199 46.448170 0.805880 0.588060 -0.068870 
46.572842 18.479200 46.352779 0.585569 0.536441 0.607734 
46.641048 18.521311 46.343922 0.536740 0.565873 0.625858 
46.644180 18.504210 46.240311 0.501886 0.789295 0.353728 
46.700272 18.535299 46.213829 0.301697 0.852324 0.427227 
46.705399 18.519991 46.113049 0.750907 0.654234 -0.090092 
46.706600 18.501101 46.006489 0.685708 0.724473 0.070306 
46.722561 18.495640 45.921398 0.869424 0.493063 0.031473 
46.737190 18.488951 45.834309 0.515929 0.601168 0.610257 
46.796101 18.522610 45.811909 0.661762 0.482441 0.573866 
46.814468 18.519320 45.730251 0.703366 0.542359 0.459481 
46.853889 18.535210 45.679329 0.674476 0.683208 0.279837 
46.863350 18.523800 45.584579 0.724983 0.666679 -0.173030 
46.833630 18.476650 45.432400 0.659748 0.751433 -0.008963 
46.857471 18.478319 45.358559 0.706904 0.704572 0.062162 
46.865021 18.465130 45.260830 0.644621 0.754184 0.125183 
46.895000 18.472380 45.195930 0.115836 0.842709 0.525760 
46.952709 18.504919 45.171692 0.199268 0.709828 0.675601 
47.005630 18.533100 45.140450 0.121665 0.750060 0.650082 
47.042339 18.546490 45.085411 0.769164 0.536884 0.346615 
47.042770 18.526770 44.977051 0.948805 0.315254 0.019594 
47.058441 18.520950 44.891029 0.862136 0.505314 -0.037138 
47.016140 18.462200 44.719669 0.579541 0.713868 0.393095 
47.048279 18.471390 44.657761 0.339035 0.486613 0.805148 
47.121971 18.518520 44.657040 -0.002719 0.221469 0.975164 
47.192902 18.563129 44.652260 0.506050 0.478469 0.717622 
47.214649 18.562830 44.575039 0.367179 0.836682 0.406377 
47.267559 18.590990 44.543751 0.342136 0.900082 0.269806 
47.257561 18.561680 44.419640 0.706793 0.675833 -0.209030 
47.245029 18.530020 44.291679 0.686706 0.726929 -0.002933 
47.260170 18.523661 44.204540 0.912596 0.408856 -0.002472 
47.276791 18.518629 44.119530 0.714352 0.681938 0.157039 
47.294498 18.514589 44.036091 0.784354 0.615347 0.078343 
47.307980 18.506670 43.946350 0.923307 0.383994 0.007233 
47.292019 18.471821 43.812981 0.910008 0.406031 0.083816 
47.316460 18.473909 43.739361 0.638654 0.556724 0.531205 
47.361000 18.494390 43.695511 0.603709 0.486635 0.631444 
47.398529 18.508440 43.641239 0.500536 0.745435 0.440216 
47.431980 18.518770 43.580929 0.309554 0.865578 0.393639 
47.461609 18.525579 43.514919 0.227576 0.803988 0.549375 
47.519169 18.557970 43.490372 0.530598 0.741509 0.410646 
47.530128 18.547701 43.396610 0.763950 0.619486 0.180601 
47.546970 18.542801 43.311531 0.785979 0.609937 0.101063 
47.560081 18.534470 43.220852 0.730659 0.620517 0.284773 
47.592430 18.543760 43.158772 0.696441 0.627354 0.348421 
47.632000 18.559669 43.107422 0.676717 0.716466 0.169502 
47.607479 18.516840 42.960590 0.746207 0.655973 0.113468 
47.645130 18.530970 42.906300 0.541247 0.679544 0.495250 
47.678970 18.541599 42.846340 0.806838 0.378773 0.453370 
47.691261 18.532480 42.754189 0.851276 0.521588 0.057235 
47.706230 18.525801 42.666000 0.758776 0.645145 -0.089698 
47.696941 18.496870 42.541531 0.814452 0.546758 -0.194226 
44.728020 18.504520 53.327030 0.373493 0.759729 0.532274 
44.774361 18.527000 53.287651 0.490409 0.769083 0.409890 
44.791168 18.522940 53.207241 0.437221 0.810239 0.390321 
44.842110 18.549540 53.174240 0.486938 0.814895 0.314384 
44.851070 18.538410 53.082851 0.706031 0.707927 -0.018974 
44.859150 18.526489 52.990211 0.710675 0.700954 -0.060030 
44.870178 18.517220 52.901611 0.733954 0.678765 0.024276 
44.877041 18.504181 52.807171 0.751975 0.659175 -0.004792 
44.886330 18.493320 52.716049 0.540800 0.835169 0.100135 
44.907059 18.492741 52.640839 0.749976 0.661372 0.011136 
44.907139 18.473570 52.536781 0.335626 0.755082 0.563211 
44.982529 18.522150 52.537800 0.133757 0.597533 0.790610 
45.021191 18.537680 52.487549 0.385240 0.639552 0.665254 
45.069469 18.561871 52.450760 0.698752 0.659733 0.276583 
45.054001 18.528690 52.324821 0.686290 0.715643 0.129849 
45.084961 18.537291 52.263771 0.854451 0.519355 -0.013552 
45.072720 18.506990 52.142220 0.900328 0.402151 -0.166386 
45.061508 18.477610 52.022049 0.914337 0.343079 0.215139 
45.101250 18.494080 51.973171 0.810776 0.403665 0.423906 
45.112640 18.485029 51.884560 0.704138 0.516416 0.487344 
45.171379 18.518620 51.862301 0.445670 0.686070 0.575053 
45.180302 18.507330 51.770161 0.805792 0.575687 0.138869 
45.201191 18.506809 51.694771 0.846231 0.527806 0.072897 
45.208389 18.493971 51.600128 0.694901 0.719105 -0.000351 
45.220482 18.485500 51.512291 0.685068 0.701431 0.196663 
45.250790 18.493460 51.450039 0.733818 0.632551 0.247770 
45.259621 18.482050 51.357552 0.859215 0.502223 0.097581 
45.265671 18.468121 51.261089 0.965005 0.248646 0.083313 
45.282188 18.463619 51.179329 0.952095 0.243407 0.185118 
45.304810 18.464621 51.106121 0.979977 0.179231 0.086728 
45.294559 18.435961 50.986549 0.879489 0.467919 -0.086893 
45.302330 18.423550 50.892311 0.424207 0.838392 0.342267 
45.352242 18.449141 50.857491 -0.323689 0.667653 0.670422 
45.426620 18.496830 50.857231 -0.240241 0.661409 0.710509 
45.488419 18.533171 50.839241 0.230623 0.858876 0.457323 
45.501160 18.525221 50.751949 0.485008 0.871504 0.072443 
45.514030 18.517389 50.664780 0.751869 0.656626 0.059451 
45.538151 18.519699 50.593498 0.834081 0.550651 -0.033032 
45.514229 18.478621 50.454170 0.891371 0.415893 -0.180251 
45.502689 18.448709 50.332291 0.980640 0.187931 0.055015 
45.521561 18.446251 50.253410 0.969633 0.207232 0.129874 
45.526451 18.431160 50.154678 0.992363 0.122772 0.011974 
45.525928 18.411169 50.048229 0.989918 0.023026 0.139757 
45.552761 18.415880 49.980511 0.960348 0.213212 0.179643 
45.556259 18.399500 49.879662 0.919362 0.371235 0.130221 
45.582600 18.403749 49.811180 0.747741 0.507545 0.428114 
45.614819 18.413330 49.751060 0.433470 0.482859 0.760888 
45.676338 18.449400 49.732578 0.398088 0.480136 0.781662 
45.705441 18.456141 49.667992 0.313978 0.596777 0.738427 
45.779919 18.503941 49.667999 0.355936 0.710604 0.606920 
45.785530 18.489420 49.569931 0.835852 0.504332 0.216798 
45.815510 18.496969 49.506569 0.834558 0.524969 0.167096 
45.830540 18.490959 49.421848 0.850122 0.521760 0.071125 
45.838070 18.478170 49.326389 0.816032 0.536410 0.215304 
45.866631 18.484400 49.260899 0.802160 0.576408 0.155864 
45.878750 18.475731 49.171890 0.586796 0.683651 0.433926 
45.923779 18.496870 49.129890 0.168434 0.556675 0.813476 
45.998562 18.544960 49.130409 0.517184 0.595686 0.614556 
45.990921 18.518391 49.013088 0.797518 0.602322 0.034267 
46.015320 18.520830 48.941540 0.542870 0.802124 0.248775 
46.045010 18.528061 48.877529 0.552636 0.795758 0.247717 
46.002831 18.470150 48.710541 0.871514 0.487170 -0.055927 
46.001720 18.449450 48.602291 0.924457 0.312186 0.218903 
46.032009 18.457199 48.539021 0.850863 0.401162 0.339265 
46.053108 18.456610 48.462540 0.601327 0.750003 0.275500 
46.089008 18.469440 48.407261 0.440225 0.808028 0.391527 
46.123051 18.480579 48.349312 0.386022 0.685878 0.616895 
46.174000 18.507059 48.315651 0.240425 0.783899 0.572449 
46.202511 18.513170 48.249729 0.694691 0.630299 0.346593 
46.220390 18.509640 48.168491 0.993086 0.114357 0.026529 
46.225880 18.494860 48.069389 0.985919 0.129664 0.105600 
46.177170 18.430870 47.892170 0.823447 0.518022 -0.231493 
46.169979 18.404539 47.774632 0.492139 0.854877 0.164267 
46.204201 18.415800 47.716709 0.348862 0.823753 0.446908 
46.247280 18.435110 47.671581 0.128532 0.749845 0.649009 
46.299980 18.463160 47.640320 0.141642 0.738447 0.659267 
46.348751 18.487631 47.603390 0.121179 0.624636 0.771457 
46.408772 18.522329 47.582741 0.298001 0.444214 0.844908 
46.456928 18.546261 47.544960 0.625949 0.658237 0.418225 
46.446381 18.516821 47.422279 0.875713 0.454215 -0.163757 
46.442081 18.493059 47.308571 0.882660 0.422586 -0.205750 
46.389679 18.425550 47.125141 0.974442 0.189817 -0.120134 
46.387501 18.403681 47.014309 0.980696 0.194860 -0.016274 
46.400959 18.396021 46.926071 0.920098 0.227284 0.319001 
46.427891 18.400600 46.857330 0.598917 0.335002 0.727373 
46.484718 18.432381 46.831940 0.342566 0.547626 0.763384 
46.523281 18.447540 46.780060 0.139239 0.729792 0.669340 
46.580070 18.479290 46.754639 0.438545 0.838249 0.324064 
46.593239 18.471331 46.665859 0.745919 0.665279 0.031745 
46.603909 18.461100 46.573391 0.806862 0.590700 -0.006882 
46.603951 18.441179 46.465420 0.744808 0.660741 -0.093182 
46.606281 18.423330 46.360691 0.570161 0.581457 0.580366 
46.668270 18.459801 46.342800 0.633150 0.443581 0.634316 
46.690670 18.460220 46.267250 0.279558 0.766109 0.578727 
46.748081 18.492510 46.242691 0.416433 0.801908 0.428401 
46.762428 18.485590 46.155361 0.595928 0.802956 -0.011441 
46.769901 18.472389 46.057949 0.664064 0.739863 -0.107803 
46.764629 18.447559 45.941879 0.687166 0.726327 0.015874 
46.788078 18.448910 45.867691 0.560492 0.722057 0.405565 
46.824169 18.461760 45.811932 0.577512 0.696156 0.426435 
46.851990 18.467079 45.744091 0.323795 0.785803 0.526944 
46.909309 18.499290 45.719360 0.626250 0.694085 0.355045 
46.899509 18.470289 45.596420 0.752201 0.646808 -0.125832 
46.906071 18.456200 45.497349 0.698313 0.707689 -0.107399 
46.910709 18.440340 45.395401 0.610170 0.791603 0.032502 
46.927471 18.435530 45.311180 0.219614 0.941911 0.254112 
46.976101 18.459810 45.273659 0.214082 0.931596 0.293765 
46.986919 18.449560 45.180641 0.389410 0.724507 0.568726 
47.058231 18.494539 45.176411 0.529354 0.549234 0.646627 
47.070171 18.485310 45.084999 0.909226 0.415768 0.021097 
47.065430 18.460840 44.969009 0.960339 0.259759 -0.101361 
47.053539 18.429819 44.842442 0.961258 0.274669 -0.023251 
47.069988 18.424690 44.757488 0.665331 0.693367 0.276726 
47.099560 18.431520 44.691799 0.176891 0.716546 0.674738 
47.159149 18.465790 44.670311 0.086472 0.460606 0.883382 
47.214359 18.496050 44.642399 0.273686 0.568421 0.775882 
47.262360 18.519730 44.603859 0.344937 0.661026 0.666381 
47.308472 18.541679 44.562550 0.754885 0.561081 0.339613 
47.302780 18.516279 44.444790 0.752422 0.645782 -0.129717 
47.304790 18.497890 44.338310 0.753985 0.634981 -0.168245 
47.283470 18.458160 44.197300 0.703490 0.695090 0.148160 
47.320721 18.471979 44.142761 0.565955 0.752571 0.336649 
47.289429 18.423100 43.986851 0.999782 0.003409 0.020611 
47.287071 18.400669 43.873631 0.906655 0.361569 0.217358 
47.321758 18.412130 43.815201 0.722441 0.600845 0.342147 
47.339340 18.407930 43.731411 0.553076 0.623304 0.552810 
47.392109 18.435921 43.699730 0.315988 0.644296 0.696444 
47.433559 18.453569 43.651291 0.315050 0.746766 0.585734 
47.479931 18.475719 43.610142 0.190631 0.820430 0.539031 
47.526390 18.497950 43.569118 0.357563 0.833856 0.420515 
47.544811 18.494490 43.486469 0.741274 0.644968 0.185820 
47.570911 18.498070 43.415180 0.629720 0.710881 0.313210 
47.608299 18.511980 43.360649 0.304181 0.926199 0.222776 
47.614731 18.497530 43.260071 0.381793 0.923999 0.021424 
47.635269 18.495979 43.180401 0.547422 0.828283 0.119484 
47.649269 18.488430 43.090969 0.830402 0.550402 -0.086543 
47.655670 18.473921 42.990189 0.620309 0.779504 0.087128 
47.674900 18.471161 42.908451 0.673662 0.630724 0.385184 
47.716801 18.489180 42.860512 0.570027 0.630796 0.526465 
47.757431 18.506029 42.810638 0.250747 0.906654 0.339270 
47.777580 18.504089 42.730202 0.516265 0.851396 -0.092711 
47.765221 18.472321 42.601170 0.547571 0.798814 -0.249125 
47.729149 18.418770 42.436581 -0.105305 0.990205 0.091681 
44.783329 18.469530 53.365910 0.539863 0.712295 0.448535 
44.813042 18.477051 53.303440 0.484322 0.750713 0.449292 
44.856209 18.496679 53.259659 0.576744 0.710663 0.402895 
44.872070 18.491751 53.177898 0.653063 0.728236 0.207801 
44.895241 18.493380 53.106270 0.803573 0.594424 -0.030513 
44.882549 18.462770 52.984718 0.937128 0.346380 -0.042569 
44.895481 18.455179 52.898762 0.961542 0.260049 0.088384 
44.914501 18.453060 52.821239 0.857816 0.430546 0.280682 
44.940899 18.457581 52.753971 0.684328 0.702215 0.196444 
44.942711 18.439960 52.652382 0.599227 0.790999 0.123484 
44.979240 18.453581 52.599178 0.199641 0.814059 0.545391 
45.024391 18.474951 52.557999 0.254955 0.620729 0.741413 
45.080959 18.506599 52.532780 0.517267 0.603779 0.606536 
45.098370 18.503010 52.452862 0.705278 0.668492 0.236013 
45.131538 18.513599 52.394932 0.710714 0.700810 0.061245 
45.106140 18.471430 52.255039 0.901754 0.402999 -0.156303 
45.099602 18.446239 52.141472 0.868615 0.458044 -0.188955 
45.082932 18.411900 52.013618 0.865254 0.412507 0.284908 
45.124561 18.430080 51.967388 0.742503 0.498866 0.447015 
45.142269 18.426701 51.887611 0.436936 0.644388 0.627575 
45.201248 18.460510 51.865700 0.459171 0.732337 0.502837 
45.215031 18.453581 51.780361 0.743437 0.662669 0.090389 
45.232342 18.449829 51.699940 0.853224 0.510328 0.107588 
45.253712 18.449730 51.625191 0.760985 0.642350 0.091034 
45.248310 18.425480 51.512779 0.638378 0.717402 0.278942 
45.290649 18.444269 51.467430 0.633793 0.731117 0.252534 
45.292881 18.426889 51.365650 0.834831 0.546160 -0.069043 
45.297581 18.411720 51.267281 0.901607 0.432501 -0.006924 
45.306141 18.400030 51.174301 0.901730 0.430848 0.035416 
45.299580 18.374670 51.059952 0.947628 0.315550 -0.049287 
45.312019 18.366461 50.972328 0.716387 0.663176 0.216768 
45.341549 18.373671 50.908779 0.149307 0.747614 0.647133 
45.427040 18.431400 50.924179 -0.138674 0.527768 0.837992 
45.481430 18.461050 50.895721 -0.024368 0.595664 0.802864 
45.539398 18.493950 50.872349 0.248407 0.731499 0.634983 
45.579041 18.510290 50.823090 0.677274 0.715926 0.169559 
45.559231 18.472919 50.689732 0.802061 0.581070 -0.138041 
45.547409 18.442739 50.567570 0.867008 0.456268 -0.200290 
45.539890 18.416451 50.451450 0.847643 0.483682 -0.218066 
45.517910 18.377060 50.314739 0.730237 0.669006 0.138509 
45.551311 18.387720 50.256439 0.836329 0.543600 0.071082 
45.536610 18.354891 50.129921 0.946400 0.300216 -0.119155 
45.537910 18.336519 50.026020 0.936050 0.223070 0.272120 
45.576370 18.351740 49.974800 0.902874 0.286381 0.320631 
45.577511 18.333191 49.870560 0.795654 0.517392 0.315023 
45.615891 18.348339 49.819191 0.573982 0.631469 0.521336 
45.648338 18.358110 49.759380 0.250675 0.624110 0.740033 
45.714149 18.398069 49.747009 -0.009756 0.626219 0.779586 
45.773529 18.432211 49.725521 -0.177743 0.736796 0.652334 
45.820080 18.454750 49.685780 0.541631 0.782813 0.306334 
45.837170 18.450609 49.604080 0.727947 0.677612 0.104570 
45.852600 18.444969 49.519970 0.802329 0.593031 0.067695 
45.856812 18.429150 49.419811 0.927672 0.371821 0.034266 
45.881359 18.431749 49.348629 0.864599 0.417702 0.279274 
45.899639 18.428659 49.268459 0.857579 0.469181 0.210778 
45.916641 18.424400 49.186420 0.442060 0.757748 0.480002 
45.964260 18.447889 49.148129 0.407993 0.524572 0.747239 
46.007309 18.467239 49.103291 0.878593 0.246151 0.409247 
46.033649 18.471430 49.034531 0.801759 0.534482 0.267415 
46.048550 18.465250 48.949390 0.674670 0.672050 0.305236 
46.079430 18.473551 48.887089 0.712869 0.629048 0.310026 
46.038502 18.416719 48.721870 0.798257 0.566351 -0.205017 
46.029949 18.389250 48.602951 0.630390 0.717598 0.296077 
46.076672 18.411890 48.563229 0.366897 0.757396 0.540128 
46.116348 18.428150 48.513420 0.573447 0.752377 0.324172 
46.128780 18.419689 48.424469 0.543088 0.784610 0.299069 
46.163929 18.431829 48.368111 0.142990 0.757524 0.636955 
46.230629 18.472601 48.357090 0.297645 0.803499 0.515555 
46.248119 18.468710 48.275330 0.681509 0.723489 0.110043 
46.216110 18.419870 48.122311 0.784886 0.609838 0.109775 
46.238548 18.420450 48.047569 0.858588 0.509072 -0.060600 
46.217159 18.381220 47.909660 0.620412 0.781787 -0.062434 
46.244789 18.386490 47.842289 0.520252 0.832618 0.189962 
