53.643902 17.031040 65.002136 0.933048 0.359610 0.010080 
53.675289 17.040300 64.946587 0.439750 0.806751 0.394681 
53.692371 17.035690 64.871071 0.694698 0.680540 0.232938 
53.731609 17.052540 64.826431 0.753886 0.581779 0.305268 
53.731152 17.030920 64.726372 0.901826 0.397818 0.168674 
53.749809 17.027821 64.652946 0.746875 0.607175 0.271140 
53.769779 17.025980 64.581337 0.953313 0.226816 0.199372 
53.783951 17.018520 64.501587 0.947393 0.152530 0.281392 
53.814259 17.026690 64.444366 0.951101 0.233699 0.201970 
53.777729 16.948790 64.193817 0.520342 0.832351 -0.190884 
53.770699 16.963221 64.283730 0.220806 0.974453 0.041064 
53.724579 16.875990 64.019547 0.180523 0.959862 0.214654 
53.778389 16.906910 63.995079 0.204039 0.961851 0.182237 
53.793079 16.899879 63.915760 0.492960 0.809030 0.320095 
53.840359 16.924480 63.882141 0.524122 0.744880 0.412856 
53.834499 16.897490 63.773911 0.794377 0.605902 -0.042988 
53.843319 16.884741 63.686230 0.705709 0.495755 0.506164 
53.901482 16.919901 63.667870 0.617462 0.522839 0.587691 
53.895931 16.893169 63.559921 0.528452 0.643656 0.553576 
53.960751 16.934790 63.550919 0.649594 0.587519 0.482545 
53.970379 16.922800 63.464272 0.886136 0.459759 -0.058171 
53.948170 16.879869 63.332710 0.656404 0.750806 0.073650 
53.976181 16.864330 63.171452 0.750203 0.620693 -0.227894 
53.984558 16.893850 63.283649 0.711050 0.702864 0.019759 
53.922729 16.790970 62.995579 0.696089 0.711795 -0.093853 
53.934170 16.780680 62.911190 0.678320 0.726126 0.112357 
53.946190 16.770941 62.827560 0.905115 0.425162 0.002033 
53.952209 16.755350 62.735409 0.793723 0.587433 0.157880 
53.995319 16.775841 62.695648 0.252517 0.868353 0.426847 
54.011749 16.770361 62.618141 0.685236 0.722103 0.094968 
54.037079 16.773540 62.553200 0.527805 0.791053 0.309284 
54.060452 16.774811 62.485470 0.815301 0.576572 0.053375 
54.063629 16.756411 62.389099 0.569894 0.803958 0.169922 
54.105888 16.776051 62.348068 0.615346 0.739794 0.272128 
54.072140 16.721680 62.199219 0.900827 0.372743 -0.222650 
54.061272 16.689569 62.082748 0.880625 0.457676 0.122604 
54.082600 16.688801 62.011909 0.654312 0.744603 0.132069 
54.102612 16.686741 61.939159 0.726265 0.682861 -0.078990 
54.096020 16.658760 61.828579 0.677208 0.687717 0.261600 
54.137390 16.677500 61.786129 0.518652 0.798818 0.304778 
54.144249 16.662600 61.694580 0.804981 0.591132 0.050681 
54.142769 16.639561 61.591099 0.801151 0.593966 0.073221 
54.167938 16.642490 61.525509 0.641565 0.667212 0.378448 
54.205791 16.657780 61.477982 0.841740 0.519817 0.145824 
54.197281 16.627859 61.364330 0.836616 0.498913 -0.226183 
54.177471 16.586889 61.234489 0.550293 0.832251 -0.067350 
54.196220 16.583530 61.159599 0.727113 0.676296 -0.118031 
54.181759 16.547750 61.037239 0.894458 0.440060 -0.079326 
54.175770 16.520210 60.926891 0.604209 0.620990 0.499303 
54.233521 16.554890 60.907619 0.492764 0.787405 0.370374 
54.249722 16.549000 60.828930 0.363451 0.930944 -0.035316 
54.243290 16.521009 60.717812 0.671587 0.740665 0.019650 
54.266300 16.521761 60.648781 0.488902 0.852693 0.184091 
54.286640 16.519880 60.575890 0.681363 0.731444 0.027085 
54.306011 16.517050 60.501572 0.481576 0.876180 0.019853 
54.319851 16.508810 60.419300 0.465460 0.868687 -0.169500 
54.292980 16.460779 60.278561 0.849122 0.527656 -0.023907 
54.307201 16.452900 60.196720 0.901441 0.432201 0.024627 
54.283279 16.407709 60.060040 0.724046 0.605465 0.330410 
54.329121 16.430710 60.023529 0.732376 0.652073 0.196028 
54.326962 16.406780 59.918011 0.796033 0.429840 0.426109 
54.375141 16.432060 59.884838 0.745559 0.352858 0.565361 
54.401718 16.436220 59.820591 0.897779 0.412403 0.154649 
54.419590 16.431841 59.743771 0.829433 0.486728 0.274111 
54.429550 16.419729 59.655521 0.689253 0.455436 0.563479 
54.465389 16.432930 59.604530 0.743619 0.482751 0.462583 
54.496429 16.441429 59.546619 0.888603 0.234096 0.394441 
54.525612 16.448099 59.485989 0.769136 0.152881 0.620530 
54.577122 16.476629 59.457600 0.559811 0.390458 0.730858 
54.600700 16.477831 59.388870 0.689175 0.620510 0.374172 
54.634460 16.488979 59.334831 0.691352 0.662037 0.289377 
54.582130 16.415779 59.156239 0.811399 0.533425 -0.238935 
54.568031 16.380020 59.032841 0.904803 0.425762 0.007591 
54.582458 16.372190 58.950668 0.974115 0.196188 0.112298 
54.545658 16.314150 58.794239 -0.046323 0.808027 0.587321 
54.598091 16.343559 58.767040 -0.038912 0.841044 0.539565 
54.656521 16.378839 58.748539 0.484569 0.818993 0.307316 
54.630371 16.331190 58.607330 0.631365 0.764371 -0.130825 
54.643860 16.322399 58.523590 0.327655 0.926142 0.186823 
54.693039 16.348610 58.491631 0.454496 0.879538 0.140876 
54.666481 16.300510 58.349609 0.701370 0.646857 -0.299426 
54.647652 16.259970 58.218719 0.781358 0.613180 -0.116151 
54.652691 16.242849 58.122490 0.764640 0.597181 0.242282 
54.687302 16.254730 58.069210 0.759931 0.593264 0.265599 
54.700729 16.245810 57.985100 0.913914 0.405240 0.023274 
54.686951 16.210171 57.861279 0.914877 0.367284 0.167641 
54.717609 16.218161 57.802170 0.927536 0.233470 0.291837 
54.729111 16.207331 57.715111 0.648817 0.492081 0.580425 
54.782619 16.237740 57.689289 0.742224 0.442368 0.503402 
54.793831 16.226610 57.601742 0.726862 0.408480 0.552101 
54.837292 16.247160 57.561249 0.792057 0.503191 0.345608 
54.843868 16.231449 57.466850 0.395981 0.696716 0.598152 
54.909962 16.274250 57.459450 0.418855 0.688072 0.592552 
54.896660 16.238979 57.335892 0.964562 0.256205 -0.063087 
54.887192 16.207460 57.217861 0.853001 0.521130 0.028511 
54.907471 16.205200 57.143341 0.870062 0.492798 0.011932 
54.901749 16.177340 57.030659 0.514136 0.785059 0.345466 
54.957489 16.209940 57.008049 0.601944 0.734070 0.314331 
54.948719 16.179050 56.890789 0.856643 0.509983 0.077971 
54.962990 16.170830 56.807289 0.747876 0.516626 0.416869 
55.006390 16.191280 56.766548 0.802863 0.372323 0.465604 
55.022701 16.185049 56.685970 0.915295 0.203119 0.347819 
55.073601 16.212891 56.656239 0.679528 0.523002 0.514501 
55.044258 16.161680 56.508450 0.984453 0.175551 -0.005818 
55.066059 16.160839 56.435829 0.950262 0.284388 0.126988 
55.075699 16.148001 56.345280 0.957067 0.289790 -0.006730 
55.063179 16.113331 56.222019 0.768133 0.598542 -0.227419 
55.017570 16.046009 56.049881 0.571201 0.772391 0.277744 
55.046921 16.052570 55.988201 0.675555 0.487271 0.553347 
55.091881 16.074499 55.949520 0.909748 0.261706 0.322286 
55.096809 16.056959 55.851730 0.922938 0.356146 0.146099 
55.094700 16.032471 55.743500 0.807443 0.366703 0.462130 
55.151951 16.066521 55.722939 0.580876 0.647267 0.493587 
55.133221 16.025600 55.590019 0.904515 0.398236 -0.152514 
55.126049 15.996090 55.474121 0.885506 0.377984 0.270199 
55.173370 16.020321 55.438820 0.703765 0.538997 0.462815 
55.168770 15.993310 55.326599 0.980043 0.198054 0.017065 
55.166111 15.968200 55.217190 0.709951 0.519404 0.475593 
55.212830 15.991830 55.180950 0.645727 0.596599 0.476557 
55.247231 16.003300 55.126431 0.685016 0.614831 0.390815 
55.279770 16.012930 55.069141 0.783734 0.558563 0.271603 
55.286209 15.996760 54.973061 0.839442 0.541265 -0.048672 
55.289459 15.977440 54.872181 0.613483 0.767754 0.184913 
55.313900 15.979040 54.802769 0.570857 0.627622 0.529351 
55.373619 16.015511 54.785801 0.644820 0.531397 0.549386 
55.363930 15.983360 54.665531 0.802395 0.431145 0.412645 
55.402191 15.998610 54.616611 0.890281 0.336899 0.306429 
55.387119 15.961120 54.488209 0.788076 0.615096 0.024375 
55.403511 15.954720 54.406620 0.743651 0.652632 -0.145107 
55.401039 15.929650 54.296841 0.403203 0.841969 0.358490 
55.460941 15.966290 54.280102 0.636547 0.718253 0.280928 
55.437660 15.920610 54.139172 0.892748 0.379513 -0.242839 
55.423519 15.883960 54.011780 0.807948 0.559960 -0.183479 
55.401089 15.839080 53.871910 0.909676 0.414194 -0.030562 
55.406559 15.821800 53.773682 0.940452 0.090154 0.327754 
55.443378 15.835560 53.722309 0.754526 0.317556 0.574325 
55.479210 15.848330 53.669430 0.583805 0.652981 0.482481 
55.500309 15.846510 53.594471 0.742493 0.616384 0.262252 
55.540890 15.863990 53.548710 0.591633 0.689070 0.418512 
55.566952 15.867070 53.481140 0.824037 0.540403 0.170081 
55.564751 15.842140 53.371151 0.197122 0.916159 0.348993 
55.619339 15.873480 53.346340 0.322145 0.930518 0.174239 
55.607079 15.838560 53.221149 0.807474 0.542437 -0.231836 
55.594749 15.803540 53.095741 0.405338 0.913660 0.030447 
55.634560 15.820220 53.048660 0.214296 0.968643 0.125732 
55.620419 15.783380 52.920410 0.823764 0.563615 -0.061237 
55.619690 15.759820 52.812248 0.766618 0.641388 -0.030318 
55.626221 15.743450 52.714958 0.939156 0.326802 -0.105771 
53.670139 16.994419 65.101563 0.957955 0.234012 -0.166013 
53.653309 16.956961 64.978844 0.629700 0.522865 0.574535 
53.719479 16.999901 64.971764 0.696856 0.432917 0.571817 
53.712700 16.972160 64.862984 0.985734 0.161298 0.048074 
53.696480 16.935249 64.740929 0.841289 0.207211 0.499297 
53.755810 16.971560 64.724297 0.721515 0.160861 0.673453 
53.778439 16.972290 64.656410 0.965095 0.171922 0.197572 
53.781841 16.954370 64.561623 0.916550 0.333605 0.220553 
53.800591 16.951321 64.488251 0.978909 0.198784 0.047144 
53.779980 16.910080 64.359756 0.351483 0.773088 0.528010 
53.838749 16.945850 64.342323 0.552325 0.748345 0.367310 
53.812401 16.899019 64.205681 0.820331 0.539142 -0.190743 
53.821930 16.886990 64.119217 0.610845 0.788121 -0.075718 
53.821499 16.865280 64.018753 0.848232 0.524014 -0.076891 
53.820358 16.842871 63.917221 0.650821 0.601313 0.463524 
53.867451 16.867279 63.883331 0.876602 0.317404 0.361696 
53.882290 16.860371 63.804150 0.920061 0.382709 0.083791 
53.871590 16.828640 63.689049 0.603995 0.597880 0.527001 
53.922161 16.856421 63.660011 0.770748 0.325876 0.547497 
53.960709 16.872530 63.614079 0.709293 0.490608 0.506169 
53.956749 16.847309 63.508308 0.937997 0.342519 0.053321 
53.964020 16.833010 63.418301 0.808920 0.560295 0.178093 
54.001141 16.847710 63.370289 0.308797 0.887778 0.341314 
54.020580 16.845209 63.297340 0.825611 0.557249 -0.088538 
54.009232 16.812771 63.180939 0.544314 0.837755 0.043451 
53.971401 16.733120 62.926552 0.553751 0.829359 -0.074316 
53.978031 16.718109 62.835300 0.833790 0.539252 -0.118331 
53.979069 16.697660 62.736099 0.641093 0.545990 0.539346 
54.038448 16.733980 62.719349 0.668197 0.462829 0.582496 
54.042870 16.716789 62.624851 0.889923 0.413635 0.192204 
54.067822 16.719589 62.559368 0.924735 0.273087 0.265121 
54.091301 16.720961 62.491791 0.926467 0.320608 0.197155 
54.086811 16.695070 62.384529 0.742297 0.575157 0.343788 
54.123402 16.709181 62.335461 0.822591 0.491461 0.286024 
54.084572 16.649820 62.179379 0.582975 0.809383 -0.070993 
54.102730 16.645950 62.104061 0.501422 0.797206 0.336212 
54.154282 16.674629 62.076149 0.643494 0.661960 0.384349 
54.135620 16.634871 61.948490 0.841805 0.524431 -0.127815 
54.139389 16.616949 61.852612 0.518725 0.783958 0.341077 
54.185741 16.640551 61.817249 0.497421 0.805391 0.322363 
54.185501 16.618719 61.715611 0.639566 0.768510 -0.018625 
54.209450 16.620461 61.648331 0.310473 0.949892 0.036221 
54.212769 16.602060 61.551640 0.646502 0.760717 -0.057834 
54.214760 16.582359 61.452991 0.867701 0.462578 -0.181980 
54.199669 16.545980 61.329922 0.737968 0.668532 0.092023 
54.240002 16.563669 61.285858 0.619101 0.771533 0.146459 
54.213650 16.516270 61.146599 0.895334 0.396992 -0.201925 
54.213509 16.494440 61.044659 0.754929 0.643474 0.126584 
54.252129 16.510441 60.998070 0.456474 0.787771 0.413579 
54.271130 16.507280 60.923409 0.769498 0.518303 0.373140 
54.317371 16.530720 60.887691 0.663375 0.635336 0.395324 
54.305420 16.497311 60.768681 0.756764 0.644163 0.111185 
54.349831 16.518961 60.730320 0.619723 0.682327 0.387780 
54.336319 16.483999 60.608959 0.783652 0.620653 -0.026063 
54.358391 16.483810 60.538528 0.810408 0.573561 0.119444 
54.374020 16.477301 60.458820 0.628945 0.752531 0.195256 
54.326851 16.409389 60.288960 0.662015 0.722387 0.199731 
54.357330 16.417379 60.230438 0.632992 0.772045 0.057154 
54.365459 16.403509 60.139809 0.372126 0.926797 0.050690 
54.385269 16.401060 60.065929 0.662909 0.742537 -0.095866 
54.363602 16.358000 59.932339 0.748783 0.618504 0.238281 
54.402302 16.374020 59.885540 0.696267 0.636841 0.331127 
54.398449 16.348370 59.777458 0.803884 0.556479 0.210002 
54.430161 16.357531 59.720551 0.532848 0.553279 0.640278 
54.495461 16.399580 59.712051 0.344433 0.609742 0.713850 
54.526131 16.407721 59.653622 0.756458 0.602747 0.253903 
54.527519 16.387171 59.552929 0.674002 0.708539 0.209030 
54.553268 16.390480 59.487358 0.582511 0.481592 0.654790 
54.612431 16.426510 59.470009 0.412686 0.336580 0.846407 
54.659451 16.450661 59.435150 0.744335 0.461617 0.482572 
54.658241 16.427530 59.330570 0.982220 0.098453 0.159847 
54.618359 16.366489 59.169971 0.721091 0.651827 -0.234839 
54.580959 16.307840 59.012829 0.867458 0.497506 0.001937 
54.586651 16.291430 58.917969 0.643278 0.730944 0.227849 
54.624619 16.306660 58.869839 0.612818 0.703131 0.360639 
54.650459 16.309999 58.804131 0.746976 0.439261 0.499076 
54.674889 16.311939 58.736320 0.757318 0.620099 0.204810 
54.694759 16.309410 58.661888 0.451251 0.892258 -0.015750 
54.698780 16.291300 58.564388 0.673600 0.736534 0.061484 
54.718830 16.288931 58.490139 0.805291 0.585647 -0.092321 
54.689491 16.238060 58.344059 0.576764 0.792902 -0.196597 
54.705101 16.231300 58.263241 0.546065 0.825225 -0.144279 
54.697491 16.201731 58.148590 0.742655 0.666547 0.064642 
54.726589 16.208200 58.087311 0.835063 0.525300 0.163495 
54.724991 16.184509 57.981300 0.884995 0.455828 -0.094891 
54.729431 16.166731 57.884010 0.626543 0.778318 0.040811 
54.742130 16.157061 57.798710 0.497854 0.822303 0.275608 
54.788731 16.180700 57.762840 0.638354 0.690646 0.339871 
54.795269 16.164961 57.668480 0.748099 0.505040 0.430445 
54.839500 16.186270 57.629139 0.597695 0.482437 0.640324 
54.879650 16.203569 57.583832 0.589972 0.421494 0.688677 
54.930149 16.231039 57.553638 0.099558 0.639057 0.762689 
54.882278 16.161751 57.379559 0.647963 0.723742 0.237364 
54.912659 16.169420 57.319889 0.819299 0.565590 0.094110 
54.928108 16.162380 57.238319 0.818727 0.574026 0.013451 
54.928181 16.140209 57.134171 0.547097 0.828753 0.117703 
54.966419 16.155600 57.085930 0.318129 0.938655 0.133122 
54.963219 16.130180 56.976891 0.701416 0.711807 0.036709 
54.992519 16.136749 56.915470 0.668973 0.735397 0.108010 
55.004978 16.126730 56.829319 0.875535 0.467037 0.123753 
55.018940 16.118179 56.745319 0.993175 0.078290 0.086450 
55.023941 16.100790 56.648109 0.674633 0.405640 0.616706 
55.066448 16.120359 56.605999 0.982647 0.169057 0.076325 
55.060539 16.092190 56.492641 0.911967 0.405136 0.064659 
55.070431 16.079590 56.402470 0.988284 0.152565 -0.004264 
55.076099 16.062820 56.306030 0.972843 0.230169 -0.024478 
55.069679 16.034109 56.191730 0.808648 0.575174 -0.123547 
55.070210 16.012239 56.087582 0.807429 0.580820 -0.103472 
55.074841 15.994410 55.989441 0.971180 0.230911 0.059073 
55.067009 15.964260 55.872829 0.937124 0.150787 0.314742 
55.107609 15.981890 55.827671 0.881741 0.261992 0.392293 
55.125580 15.977180 55.749069 0.776516 0.306462 0.550548 
55.172562 16.001101 55.713329 0.884067 0.274008 0.378610 
55.167961 15.974100 55.601292 0.884010 0.434093 -0.173462 
55.151001 15.934890 55.470890 0.632225 0.711718 0.306185 
55.188950 15.949870 55.421700 0.848341 0.516680 0.115582 
55.189899 15.928300 55.317680 0.700409 0.679815 0.217435 
55.235199 15.950550 55.279369 0.365736 0.831991 0.417167 
55.253361 15.945970 55.200790 0.839402 0.532033 0.111110 
55.260368 15.930360 55.105621 0.950090 0.185825 0.250597 
55.291481 15.938570 55.046181 0.975170 0.056817 0.214046 
55.296638 15.921110 54.948181 0.912728 0.240826 0.330047 
55.336868 15.938320 54.902241 0.717105 0.562729 0.411212 
55.343182 15.921980 54.805851 0.954137 0.268904 0.131581 
55.344742 15.900930 54.702339 0.797848 0.239298 0.553331 
55.406898 15.939830 54.688992 0.681964 0.309532 0.662658 
55.404739 15.915080 54.579861 0.782782 0.320640 0.533331 
55.477650 15.964610 54.582550 -0.168692 0.827119 0.536113 
55.473389 15.937770 54.470200 0.643924 0.764402 -0.032418 
55.470341 15.912120 54.359600 0.707622 0.702061 -0.079884 
55.460629 15.879840 54.238960 0.981446 0.111340 -0.156098 
55.444618 15.841320 54.108841 0.989640 0.083335 -0.116907 
55.431820 15.805950 53.983410 0.949541 0.312635 0.025135 
55.459549 15.810710 53.918510 0.763855 0.627109 0.152514 
55.420349 15.749150 53.753448 0.584098 0.450969 0.674875 
55.468510 15.774140 53.719028 0.685855 0.044858 0.726354 
55.522881 15.805290 53.693920 0.732746 0.234411 0.638854 
55.535332 15.794880 53.606010 0.924236 0.262398 0.277371 
55.546570 15.783260 53.516239 0.949167 0.136259 0.283752 
55.578991 15.792640 53.458191 0.465601 0.509433 0.723667 
55.644539 15.834870 53.449848 0.414413 0.561595 0.716151 
55.678398 15.845670 53.393959 0.750331 0.531759 0.392727 
55.637310 15.782110 53.225449 0.653429 0.728014 0.207428 
55.676479 15.798150 53.177441 0.434314 0.837800 0.330851 
55.599190 15.698620 52.954269 0.646320 0.645638 0.406721 
55.643311 15.719570 52.913631 0.890676 0.375338 0.256549 
55.656059 15.709360 52.825741 0.915608 0.401853 0.013294 
55.633350 15.663940 52.684399 0.336738 0.941151 0.029024 
55.674461 15.681870 52.639130 -0.121016 0.981375 0.149190 
53.679352 16.920151 65.078011 0.675812 0.735611 0.046427 
53.703949 16.922810 65.013000 0.838534 0.507725 0.197676 
53.709179 16.906691 64.920967 0.738951 0.587881 0.329162 
53.741329 16.916651 64.866432 0.841783 0.539603 -0.015142 
53.728512 16.883011 64.749123 0.841045 0.456414 0.290396 
53.762161 16.894421 64.696617 0.807679 0.449122 0.382026 
53.774399 16.885059 64.614197 0.838682 0.390637 0.379494 
53.821190 16.909220 64.580063 0.729027 0.514834 0.451071 
53.820141 16.886940 64.478973 0.868595 0.488584 -0.082633 
53.829128 16.874399 64.391891 0.760871 0.603642 0.238100 
53.855240 16.878469 64.328743 0.918613 0.391909 0.050566 
53.841888 16.844210 64.210274 0.745119 0.651508 -0.142604 
53.841728 16.822750 64.110222 0.819479 0.563181 -0.106210 
53.847610 16.807150 64.018578 0.673368 0.739176 0.013952 
53.868038 16.805660 63.947300 0.818180 0.573919 0.034622 
53.856060 16.772680 63.830490 0.880119 0.391348 0.268769 
53.889091 16.783421 63.776821 0.864544 0.348653 0.361946 
53.926128 16.798071 63.728790 0.788771 0.463506 0.403736 
53.926620 16.777170 63.629349 0.822324 0.178072 0.540438 
53.972260 16.800171 63.593369 0.653268 0.461229 0.600425 
54.005138 16.810749 63.539429 0.620401 0.763184 0.180699 
54.009331 16.793430 63.445080 0.773337 0.542696 0.327766 
54.060970 16.822260 63.417542 0.683691 0.518809 0.513229 
54.046108 16.786381 63.296249 0.610868 0.791685 -0.008686 
54.072399 16.790529 63.232929 0.508025 0.849616 0.141647 
54.044910 16.826050 63.130829 0.579592 0.805394 0.124151 
54.076561 16.773130 63.138351 0.941972 0.320552 0.099674 
54.040989 16.717051 62.987610 0.654183 0.687484 -0.315294 
54.010521 16.665920 62.843971 0.718801 0.663645 -0.207125 
54.016171 16.649929 62.751270 0.829254 0.359546 0.427860 
54.048931 16.660330 62.696869 0.929493 0.085324 0.358835 
54.068562 16.657940 62.623878 0.833542 0.519165 0.188877 
54.066109 16.634029 62.519581 0.611287 0.673708 0.415266 
54.114590 16.659740 62.487389 0.397743 0.854692 0.333619 
54.137241 16.660271 62.418579 0.343586 0.908702 0.237085 
54.170238 16.670879 62.364429 0.727097 0.679543 0.097729 
54.159729 16.639080 62.248520 0.678516 0.696360 -0.233876 
54.137329 16.595659 62.115662 0.823613 0.563491 0.064344 
54.154930 16.591230 62.039520 0.817004 0.571876 0.073909 
54.173500 16.587749 61.964722 0.690343 0.722893 0.029196 
54.184700 16.577061 61.879421 0.630803 0.675273 0.382221 
54.230068 16.599701 61.842670 0.713260 0.572988 0.403664 
54.232899 16.580839 61.745380 0.667414 0.690561 0.278717 
54.278011 16.603220 61.708248 0.627770 0.697135 0.346276 
54.272110 16.575809 61.598431 0.778995 0.605595 -0.162547 
54.266750 16.548920 61.489319 0.765197 0.608177 -0.211173 
54.250301 16.511169 61.364319 0.671517 0.739020 -0.053985 
54.263809 16.502670 61.281990 0.823378 0.546148 -0.154179 
54.245159 16.462749 61.153690 0.715300 0.671264 -0.194295 
54.246189 16.442030 61.053410 0.674115 0.695056 0.249932 
54.282829 16.456110 61.004002 0.914524 0.326104 0.239379 
54.286301 16.437750 60.907108 0.896461 0.016385 0.442819 
54.328159 16.456909 60.865108 0.961666 0.019889 0.273501 
54.316929 16.424170 60.747120 0.740210 0.425670 0.520475 
54.363049 16.447491 60.711182 0.879528 0.372059 0.296654 
54.365601 16.428200 60.612808 0.919671 0.392091 -0.021692 
54.365429 16.406231 60.510471 0.626597 0.590662 0.508423 
54.425041 16.442730 60.493839 0.289856 0.732687 0.615755 
54.386688 16.361561 60.234360 0.472893 0.872850 0.120438 
54.416630 16.369011 60.175060 0.382633 0.919843 0.086495 
54.421249 16.351681 60.079342 0.801048 0.564177 -0.200065 
54.403061 16.312000 59.950741 0.563846 0.739259 0.368204 
54.462780 16.348591 59.934200 0.238667 0.880495 0.409594 
54.459740 16.323721 59.827301 0.414807 0.905101 -0.093422 
54.471050 16.312889 59.741009 0.381116 0.827970 0.411359 
54.513771 16.332830 59.699951 0.684143 0.563770 0.462723 
54.538120 16.334770 59.632420 0.493745 0.754143 0.432994 
54.588589 16.362301 59.602531 0.562962 0.795741 0.223317 
54.584190 16.336050 59.493439 0.838616 0.332967 0.431110 
54.629131 16.358150 59.455551 0.788856 0.195739 0.582574 
54.638512 16.345381 59.366268 0.759814 0.500118 0.415408 
54.681320 16.365400 59.325291 0.856544 0.405913 0.318697 
54.679340 16.341471 59.219501 0.792793 0.601552 -0.098052 
54.634781 16.275770 59.051998 0.747511 0.625505 -0.223542 
54.627171 16.246281 58.937889 0.883766 0.458543 -0.093255 
54.623699 16.220840 58.829689 0.956859 -0.023632 0.289590 
54.670231 16.244471 58.793941 0.434680 0.170705 0.884258 
54.726238 16.277411 58.771961 0.387799 0.683743 0.618148 
54.748150 16.276859 58.700481 0.782136 0.623108 -0.000155 
54.736061 16.242920 58.579601 0.555162 0.822909 0.120899 
54.771481 16.255630 58.527679 0.568126 0.818813 0.082334 
54.776409 16.238371 58.431412 0.508085 0.840684 -0.187352 
54.755680 16.195900 58.297760 0.621395 0.720515 -0.307777 
54.731911 16.150431 58.159599 0.575502 0.815687 -0.058767 
54.749340 16.145420 58.081329 0.680243 0.731814 -0.041435 
54.757511 16.131300 57.989521 0.588923 0.802943 0.091940 
54.790611 16.141680 57.933998 0.194504 0.968519 0.155369 
54.808159 16.136770 57.855801 0.562973 0.826090 0.025227 
54.798401 16.104980 57.737690 0.670999 0.683255 0.287964 
54.839741 16.123449 57.694141 0.783979 0.532587 0.318948 
54.849312 16.110661 57.604149 0.804465 0.285422 0.520932 
54.887520 16.126040 57.555981 0.855506 -0.061639 0.514112 
54.925110 16.140810 57.506908 0.828897 -0.035138 0.558296 
54.956902 16.149870 57.449341 0.785568 0.570278 0.240139 
54.953300 16.124090 57.339939 0.879152 0.473092 0.057240 
54.958382 16.106831 57.243179 0.843926 0.455166 0.283924 
55.004299 16.129789 57.206230 0.638665 0.495200 0.588968 
55.028580 16.131420 57.137539 0.862130 0.461442 0.209293 
55.031750 16.112261 57.037861 0.874693 0.478552 -0.076816 
55.028259 16.086519 56.928341 0.967314 0.253577 -0.001505 
55.023399 16.059410 56.816730 0.977261 0.208971 -0.035948 
55.020710 16.034430 56.708241 0.512274 0.683703 0.519736 
55.093048 16.083401 56.709999 0.499799 0.761705 0.412318 
55.076031 16.044270 56.580349 0.861551 0.503131 0.067750 
55.104340 16.049829 56.517330 0.660285 0.749192 0.052304 
55.083759 16.007151 56.382278 0.809855 0.586540 -0.010277 
55.106960 16.007650 56.311661 0.911366 0.411576 0.004198 
55.114391 15.992570 56.217739 0.897170 0.438125 -0.055973 
55.089588 15.945680 56.076229 0.886842 0.446586 -0.118624 
55.094349 15.927940 55.978249 0.807496 0.582877 -0.090577 
55.095989 15.907110 55.875599 0.466486 0.836719 0.286866 
55.135990 15.924150 55.829571 0.774598 0.604416 0.186222 
55.147499 15.913040 55.741390 0.854209 0.221171 0.470543 
55.196030 15.938500 55.707951 0.846039 0.289874 0.447428 
55.191719 15.911750 55.596321 0.893091 0.449332 0.022117 
55.224899 15.922030 55.540119 0.582842 0.762768 0.280143 
55.228901 15.903470 55.440670 0.890116 0.445818 -0.094546 
55.232471 15.884470 55.340530 0.547811 0.741499 0.387405 
55.274471 15.903450 55.297321 0.576225 0.757738 0.306265 
55.280430 15.886800 55.200630 0.854816 0.512907 -0.078842 
55.280590 15.864390 55.095280 0.828631 0.556909 0.056774 
55.291241 15.852360 55.005459 0.818978 0.546925 0.173630 
55.319649 15.857870 54.941959 0.764561 0.406597 0.500126 
55.361401 15.876590 54.898281 0.911424 0.212840 0.352145 
55.371059 15.863540 54.806862 0.968361 0.243256 0.055718 
55.377399 15.847190 54.710442 0.820683 0.385266 0.421959 
55.409821 15.856660 54.652809 0.961466 0.030155 0.273266 
55.427601 15.851620 54.573349 0.821851 0.239418 0.516952 
55.493439 15.871510 54.459480 0.757354 0.091827 0.646516 
55.427189 15.828560 54.466740 0.789475 0.071447 0.609611 
55.506229 15.861510 54.372478 0.938325 0.345637 -0.009026 
55.449139 15.782270 54.181091 0.914203 0.376671 -0.149508 
55.446331 15.756770 54.070621 0.896408 0.434472 -0.087673 
55.454479 15.742130 53.976479 0.959708 0.279697 -0.027007 
55.445808 15.710800 53.857128 0.957214 0.288740 -0.019264 
55.460941 15.703040 53.773300 0.961820 0.255097 0.099135 
55.450119 15.669550 53.650581 0.794127 -0.077032 0.602850 
55.509548 15.705720 53.633011 0.402140 0.036347 0.914857 
55.559959 15.732940 53.601959 0.826404 0.336061 0.451796 
55.567020 15.717160 53.505909 0.712482 0.382605 0.588203 
55.628029 15.754890 53.490742 0.617071 0.193713 0.762692 
55.638699 15.742670 53.400040 0.922223 -0.201270 0.330145 
55.672169 15.753080 53.343529 0.912563 0.103662 0.395580 
55.673168 15.731240 53.238201 0.907029 0.420534 0.021208 
55.676651 15.711850 53.136551 0.957460 0.267936 -0.107147 
55.663528 15.675960 53.009838 0.785335 0.598127 -0.159665 
55.651409 15.641040 52.884571 0.927070 0.352198 0.128445 
55.681000 15.647550 52.822021 0.501853 0.784798 0.363642 
55.723309 15.666690 52.778610 0.532992 0.806065 0.257253 
55.748638 15.668950 52.709610 0.672448 0.659272 0.336414 
53.736271 16.892130 65.120934 0.894533 0.424591 -0.139760 
53.708889 16.844351 64.983467 0.555465 0.698620 0.450987 
53.784309 16.896311 64.989304 0.567414 0.651593 0.503456 
53.764568 16.855921 64.862389 0.940198 0.319593 -0.117846 
53.763569 16.833710 64.761559 0.514424 0.747390 0.420447 
53.819271 16.866520 64.739853 0.652021 0.639122 0.407912 
53.807270 16.833611 64.623573 0.910680 0.297504 0.286625 
53.845341 16.849310 64.577217 0.918617 0.198589 0.341621 
53.856930 16.839279 64.493813 0.875647 0.473669 0.094235 
53.856949 16.818010 64.394173 0.853222 0.487080 0.186456 
53.888321 16.827181 64.338371 0.867276 0.450890 0.211022 
53.902359 16.819510 64.258278 0.789813 0.613058 -0.018854 
53.889919 16.786091 64.141006 0.888958 0.433887 -0.146613 
53.906570 16.780930 64.064484 0.903105 0.427866 0.036504 
53.887299 16.740841 63.937500 0.885607 0.463083 0.035420 
53.903648 16.735380 63.860451 0.752405 0.654456 0.074657 
53.911591 16.721710 63.771530 0.934563 0.331265 0.129828 
53.923439 16.711849 63.688080 0.883894 0.342699 0.318260 
53.960419 16.726431 63.639931 0.505197 0.396513 0.766520 
54.014980 16.758101 63.616501 0.626738 0.318923 0.710976 
54.043591 16.764521 63.556561 0.940310 0.282950 0.189093 
54.018909 16.719080 63.421539 0.731838 0.457249 0.505308 
54.066380 16.743851 63.388100 0.785603 0.213971 0.580556 
54.116219 16.770929 63.358021 0.263541 0.597684 0.757179 
54.073189 16.707581 63.196918 0.899098 0.405137 0.165790 
54.101040 16.713221 63.135738 0.901984 0.402767 0.155573 
54.091980 16.682920 63.022430 0.788392 0.555094 -0.265160 
54.066830 16.636921 62.886292 0.867312 0.427525 -0.254936 
54.025200 16.574850 62.726761 0.740153 0.446458 0.502841 
54.063332 16.590481 62.679932 0.492620 0.436912 0.752618 
54.121490 16.625620 62.661449 0.408786 0.634557 0.655921 
54.156582 16.638290 62.610329 0.307896 0.837591 0.451266 
54.185219 16.644670 62.550072 0.600435 0.784446 0.155311 
54.195469 16.633101 62.463711 0.569636 0.821570 -0.023174 
54.188339 16.604570 62.352631 0.607733 0.774520 -0.175439 
54.192009 16.586571 62.256840 0.769794 0.607942 -0.194483 
54.183788 16.556940 62.144089 0.548607 0.836016 -0.010359 
54.209042 16.559971 62.078819 0.554654 0.828701 0.074916 
54.218910 16.547991 61.991680 0.769950 0.632978 -0.080725 
54.214550 16.522091 61.884232 0.943076 0.254975 0.213532 
54.250931 16.535959 61.834690 0.947603 0.073066 0.310981 
54.260941 16.524071 61.747608 0.870109 0.201405 0.449829 
54.292511 16.533239 61.691189 0.912065 0.344502 0.222385 
54.296242 16.515209 61.595081 0.697729 0.711494 -0.083372 
54.298901 16.496111 61.497379 0.824309 0.549505 -0.136232 
54.300129 16.475599 61.397572 0.850826 0.518666 -0.084143 
54.308701 16.462271 61.308201 0.832176 0.553054 -0.040176 
54.305511 16.437420 61.201981 0.684627 0.704061 -0.188638 
54.293549 16.403990 61.083160 0.853206 0.508208 -0.117320 
54.276379 16.365440 60.956810 0.799568 0.581091 0.151739 
54.301380 16.368111 60.890690 0.783954 0.531303 0.321146 
54.325779 16.370190 60.823681 0.822790 0.447164 0.350800 
54.367241 16.388950 60.781078 0.629259 0.565562 0.533079 
54.391541 16.390921 60.713902 0.934668 0.328453 0.136069 
54.391430 16.368999 60.611691 0.682135 0.723449 0.106364 
54.418701 16.373880 60.548721 0.473969 0.719545 0.507551 
54.464340 16.396721 60.512051 0.759175 0.492917 0.425071 
54.439041 16.434620 60.411770 0.899734 0.431748 -0.063817 
54.459179 16.369820 60.402458 0.682000 0.713792 -0.159304 
54.449860 16.338840 60.286839 0.407160 0.913037 0.024163 
54.485870 16.352249 60.236290 0.449819 0.872044 0.192880 
54.450180 16.295401 60.082600 0.578684 0.779657 -0.239291 
54.441818 16.265310 59.968140 0.369400 0.792495 0.485278 
54.515850 16.315941 59.972198 0.529317 0.560950 0.636521 
54.531521 16.309380 59.892250 0.799782 0.596265 0.069399 
54.543190 16.298901 59.806511 0.631142 0.749983 0.197955 
54.561230 16.294649 59.729900 0.493912 0.771634 0.400789 
54.610630 16.321140 59.698509 0.514040 0.739962 0.433843 
54.606449 16.295090 59.589771 0.911436 0.400584 -0.093903 
54.609089 16.275700 59.490810 0.549703 0.627866 0.551009 
54.668228 16.311741 59.473450 0.238312 0.774220 0.586336 
54.696270 16.317270 59.411140 0.777806 0.622738 0.084940 
54.689041 16.288179 59.297798 0.810768 0.584793 0.025937 
54.700809 16.277719 59.211868 0.804689 0.564595 -0.183599 
54.674740 16.230089 59.071098 0.747713 0.590451 -0.303798 
54.651230 16.184980 58.933960 0.871892 0.419454 -0.252711 
54.626068 16.138210 58.794300 0.498234 0.649100 0.574833 
54.700562 16.189289 58.799080 0.195629 0.325577 0.925056 
54.761978 16.227560 58.784950 0.647374 0.349801 0.677160 
54.765659 16.209089 58.687000 0.668280 0.734184 0.119902 
54.798199 16.218969 58.630920 0.374615 0.916886 0.137780 
54.806740 16.205259 58.539959 0.781057 0.624013 -0.023624 
54.821991 16.198130 58.458691 0.526425 0.848262 -0.057695 
54.821980 16.175989 58.355179 0.548868 0.804926 -0.225473 
54.818741 16.150669 58.246910 0.630218 0.742566 -0.226762 
54.817020 16.126810 58.140770 0.335332 0.929737 -0.152125 
54.811970 16.099670 58.029709 0.224145 0.954901 0.194738 
54.862190 16.126890 57.999180 0.410145 0.852777 0.323346 
54.812302 16.055611 57.822609 0.473905 0.770836 0.425707 
54.865299 16.085560 57.796082 0.447784 0.834636 0.320736 
54.842400 16.040800 57.658718 0.639072 0.712604 0.289452 
54.891830 16.067221 57.626949 0.702593 0.618527 0.351835 
54.890060 16.043240 57.520351 0.707074 0.548209 0.446669 
54.930420 16.060730 57.475288 0.951792 0.153557 0.265543 
54.938728 16.046650 57.383331 0.719368 0.464146 0.516796 
54.987640 16.072550 57.350769 0.656568 0.566921 0.497512 
54.955608 16.018709 57.199631 0.943777 0.210058 0.255266 
54.979698 16.020149 57.130650 0.753983 0.245825 0.609164 
55.025909 16.043381 57.094070 0.965740 -0.050021 0.254644 
55.011539 16.006889 56.968609 0.984615 0.067368 0.161228 
55.039070 16.011709 56.904591 0.943824 0.283221 0.170241 
55.039310 15.989590 56.800442 0.787623 0.500124 0.359896 
55.097542 16.024670 56.781471 0.477918 0.569366 0.668893 
55.105209 16.009859 56.688160 0.954121 0.299309 0.008175 
55.117809 15.999920 56.602058 0.764624 0.562400 0.314733 
55.157009 16.016220 56.555069 0.808284 0.539964 0.234767 
55.135731 15.972820 56.418999 0.832904 0.520071 -0.189200 
55.112000 15.926970 56.279221 0.906446 0.422303 0.003915 
55.131969 15.924260 56.203770 0.760230 0.648180 -0.043745 
55.129959 15.899820 56.095840 0.546921 0.833779 -0.075435 
55.148338 15.895520 56.017960 0.100202 0.985822 0.134593 
55.196869 15.920990 55.984581 0.008877 0.986464 0.163740 
55.168270 15.870250 55.837200 0.915076 0.394349 -0.084411 
55.165569 15.845090 55.728039 0.797047 0.291260 0.529041 
55.223301 15.879640 55.708191 0.846420 0.181427 0.500656 
55.212391 15.846330 55.586761 0.928395 0.177935 0.326222 
55.254478 15.865410 55.543739 0.923303 0.191130 0.333139 
55.240589 15.829140 55.417770 0.703036 0.636602 0.316983 
55.283718 15.849240 55.376259 0.409748 0.728290 0.549272 
55.323650 15.866170 55.329979 0.661711 0.687248 0.299713 
55.319172 15.839180 55.217819 0.780135 0.623517 -0.051145 
55.338772 15.835980 55.141319 0.460917 0.886645 0.037644 
55.345470 15.820010 55.045620 0.499822 0.862461 -0.079618 
55.348919 15.800820 54.945042 0.950679 0.254388 0.177472 
55.361549 15.790700 54.858051 0.920429 0.226572 0.318552 
55.379910 15.786240 54.779541 0.976521 0.138067 0.165359 
55.413158 15.796520 54.723160 0.802427 0.255040 0.539505 
55.380241 15.741250 54.568199 0.284539 0.232136 0.930135 
55.470322 15.807820 54.596432 0.622114 0.353845 0.698404 
55.440510 15.755600 54.445961 0.530025 0.595314 0.603883 
55.505711 15.797520 54.437141 0.725232 0.154609 0.670921 
55.503620 15.772760 54.327911 0.998910 -0.044237 -0.014862 
55.494541 15.741030 54.208149 0.719372 0.689553 -0.083789 
55.491169 15.714960 54.096859 0.809741 0.562176 -0.168162 
55.474339 15.675520 53.965359 0.862091 0.480975 -0.159565 
55.466370 15.644850 53.847031 0.865333 0.473233 -0.165073 
55.447109 15.602970 53.711720 0.918657 0.362329 0.157441 
55.476608 15.609440 53.649319 0.243948 0.557856 0.793276 
55.554161 15.663590 53.658909 0.498993 0.307313 0.810287 
55.579681 15.666110 53.590542 0.956441 0.127037 0.262834 
55.597382 15.660870 53.510429 0.946700 0.040973 0.319500 
55.617580 15.658100 53.434021 0.946871 -0.206474 0.246583 
55.641788 15.659300 53.363602 0.785338 -0.304878 0.538789 
55.701111 15.695370 53.345909 0.788840 0.129468 0.600807 
55.700008 15.671410 53.237400 0.934536 0.349824 -0.065307 
55.692249 15.640820 53.118820 0.906174 0.399248 -0.139463 
55.688839 15.614550 53.006710 0.753414 0.636800 -0.163869 
55.684139 15.586970 52.892578 0.396185 0.879198 0.264667 
55.738361 15.617950 52.867119 0.452322 0.854545 0.255260 
55.726940 15.583670 52.742760 0.876076 0.413348 0.248262 
55.762600 15.596190 52.689301 0.855717 0.287312 0.430350 
53.739021 16.811560 65.088364 0.592780 0.801007 0.083663 
53.771099 16.821461 65.033768 0.690443 0.682634 0.239373 
53.771481 16.800591 64.934959 0.820508 0.569684 0.047192 
53.787849 16.795219 64.858383 0.618643 0.782111 0.074729 
53.811230 16.796659 64.791580 0.508261 0.838136 0.197988 
53.822830 16.786640 64.708282 0.946358 0.308478 -0.096162 
53.823460 16.765970 64.609619 0.889553 0.403274 0.214628 
53.846512 16.767059 64.542236 0.641590 0.586200 0.494704 
53.888851 16.786900 64.501846 0.720928 0.658525 0.215888 
53.887039 16.763809 64.399612 0.930171 0.366169 0.026501 
53.901821 16.756849 64.320580 0.908119 0.357114 0.218607 
53.920380 16.753550 64.246803 0.948250 0.310143 -0.068073 
53.886509 16.699261 64.099457 0.969653 0.204745 -0.133613 
53.879608 16.671181 63.989849 0.657488 0.677161 0.330398 
53.929131 16.697969 63.959381 0.718228 0.645192 0.260531 
53.935020 16.682301 63.867630 0.946457 0.321587 0.028321 
53.941311 16.667021 63.776402 0.904591 0.416516 0.090716 
53.956959 16.660830 63.698269 0.728597 0.601503 0.327627 
53.984509 16.666229 63.636848 0.775509 0.406874 0.482741 
54.014130 16.673630 63.578320 0.913099 0.140119 0.382906 
54.039021 16.676420 63.513111 0.706659 0.616123 0.347888 
54.073719 16.688761 63.461712 0.680791 0.706049 0.194983 
54.073448 16.667030 63.360989 0.813603 0.253520 0.523238 
54.122860 16.693701 63.330292 0.831858 0.184688 0.523357 
54.107830 16.657570 63.208649 0.937790 0.342041 -0.059647 
54.120579 16.648500 63.126160 0.975406 0.212035 0.060204 
54.077969 16.585449 62.965420 0.842164 0.475988 -0.253368 
54.060001 16.546410 62.839378 0.737208 0.652181 -0.176591 
54.066078 16.530790 62.747261 0.415149 0.880844 0.227519 
54.103451 16.545679 62.699379 0.321590 0.776334 0.542111 
54.139679 16.559460 62.649860 0.493240 0.523727 0.694568 
54.192501 16.589411 62.623829 0.284977 0.776178 0.562437 
54.209671 16.584591 62.547310 0.677320 0.673519 0.295988 
54.253231 16.605511 62.508171 0.259286 0.839047 0.478300 
54.289829 16.619631 62.459148 0.334616 0.912194 0.236505 
54.231750 16.541340 62.275749 0.537324 0.830928 -0.144367 
54.241211 16.528940 62.188091 0.650714 0.759305 0.005233 
54.251850 16.517700 62.102081 0.861087 0.508253 0.014414 
54.252338 16.496531 62.001591 0.882784 0.441415 -0.160762 
54.222221 16.445450 61.857498 0.979977 0.199112 0.000616 
54.236160 16.437389 61.776009 0.721433 0.384571 0.575882 
54.286652 16.465031 61.746521 0.590835 0.373354 0.715207 
54.325378 16.481190 61.700291 0.648358 0.489198 0.583367 
54.367470 16.500620 61.658840 0.429192 0.739264 0.518924 
54.324909 16.437300 61.496670 0.719967 0.661871 -0.208744 
54.311180 16.402149 61.375511 0.693389 0.720094 0.025991 
54.336430 16.405090 61.309921 0.755459 0.654950 0.017967 
54.344521 16.391251 61.219799 0.686408 0.725544 -0.049304 
54.293228 16.319309 61.044750 0.299958 0.901393 0.312274 
54.348370 16.351460 61.021751 0.350465 0.920854 0.170883 
54.353561 16.334749 60.927319 0.682633 0.730250 -0.027332 
54.361092 16.320311 60.836182 0.690603 0.690437 0.215325 
54.387138 16.323990 60.771519 0.794178 0.549713 0.259032 
54.406330 16.320950 60.696999 0.622958 0.709192 0.330107 
54.449200 16.341089 60.656399 0.456227 0.859696 0.229737 
54.447289 16.317369 60.551552 0.480349 0.817087 0.318801 
54.487411 16.334810 60.506981 0.552499 0.774727 0.307478 
54.521610 16.346451 60.453911 0.747701 0.662771 0.040965 
54.500660 16.304041 60.321560 0.902272 0.423013 -0.083461 
54.503342 16.284781 60.223110 0.554472 0.825652 0.104210 
54.523102 16.282240 60.149151 0.463423 0.879190 -0.110740 
54.492630 16.230450 60.002880 0.931044 0.348149 0.109310 
54.520081 16.235430 59.939899 0.966075 -0.097324 0.239222 
54.530910 16.224100 59.852951 0.843357 0.079533 0.531435 
54.576988 16.247339 59.816769 0.780607 0.337224 0.526244 
54.596161 16.244181 59.741772 0.649059 0.487490 0.584017 
54.637829 16.263100 59.699230 0.933783 0.244284 0.261486 
54.639179 16.242439 59.598461 0.946787 0.285659 0.148300 
54.660660 16.241520 59.526711 0.134918 0.789103 0.599260 
54.720119 16.277889 59.509830 0.549473 0.748368 0.371516 
54.698620 16.234779 59.375900 0.739048 0.593856 0.318030 
54.755341 16.268450 59.355042 0.492618 0.766962 0.411215 
54.742199 16.233509 59.233070 0.713021 0.650795 -0.260898 
54.724689 16.194260 59.104691 0.677713 0.668309 -0.306705 
54.690750 16.138849 58.952419 0.656300 0.672517 0.342041 
54.731369 16.156679 58.908131 0.326544 0.892728 0.310491 
54.716572 16.120041 58.783440 0.521003 0.608396 0.598674 
54.787460 16.167629 58.783051 0.221667 0.636166 0.739024 
54.825680 16.183090 58.735241 0.571179 0.734952 0.365513 
54.852650 16.187490 58.671089 0.725204 0.672467 0.147875 
54.843399 16.156269 58.554260 0.477535 0.860058 0.179612 
54.891010 16.180950 58.520061 0.284209 0.914484 0.288000 
54.869209 16.137350 58.384850 0.853614 0.487821 -0.182688 
54.839539 16.085991 58.238091 0.398819 0.902155 0.164500 
54.910191 16.133350 58.237381 0.179695 0.890384 0.418241 
54.872608 16.074160 58.078930 0.568835 0.816984 -0.094678 
54.853168 16.032820 57.946831 0.624037 0.764937 -0.159527 
54.862598 16.019880 57.856758 0.508827 0.804449 0.306525 
54.903992 16.038401 57.813301 0.837954 0.483437 0.253223 
54.914509 16.026510 57.724739 0.754019 0.649169 0.100175 
54.911812 16.001600 57.616821 0.772819 0.572166 0.274549 
54.960899 16.027691 57.584549 0.482580 0.783187 0.392089 
54.949150 15.993830 57.463280 0.610323 0.763352 0.211658 
54.994652 16.016390 57.425751 0.649637 0.671960 0.355585 
55.002380 16.001711 57.332901 0.957100 0.289673 -0.007011 
54.992611 15.969760 57.214352 0.677143 0.725059 0.125569 
55.024502 15.978880 57.156792 0.773092 0.593242 0.224485 
55.020168 15.952270 57.046101 0.988886 0.137095 -0.057535 
55.033482 15.943050 56.961208 0.887649 0.252098 0.385391 
55.071018 15.957720 56.911869 0.764952 0.564563 0.310028 
55.065411 15.929810 56.799110 0.750030 0.209833 0.627236 
55.115841 15.957190 56.768669 0.843865 0.128096 0.521041 
55.127899 15.946710 56.681808 0.852168 0.502141 0.147189 
55.141708 15.937930 56.597469 0.972268 0.205214 0.112167 
55.154480 15.928130 56.511551 0.825038 0.553646 0.113082 
55.166100 15.917170 56.423901 0.700807 0.691079 -0.176862 
55.154610 15.883380 56.302139 0.510256 0.856255 0.080412 
55.194401 15.900230 56.255909 0.507260 0.847041 0.158771 
55.197781 15.881100 56.155960 0.522747 0.848388 0.083503 
55.232208 15.892660 56.101810 0.499360 0.838528 0.217968 
55.172520 15.811150 55.908581 0.987904 0.150701 0.036546 
55.200668 15.816470 55.845039 0.902466 0.392172 0.178200 
55.192402 15.785770 55.727612 0.846732 0.473793 0.242003 
55.218269 15.788820 55.660610 0.869553 0.480494 0.114035 
55.228390 15.776280 55.570278 0.915356 0.376635 0.142369 
55.244049 15.769210 55.488091 0.762997 0.451501 0.462582 
55.298370 15.800390 55.463181 0.430882 0.697487 0.572585 
55.314129 15.793400 55.381081 0.762556 0.470489 0.444015 
55.357201 15.813450 55.339481 0.847796 0.407125 0.339840 
55.354969 15.788640 55.230621 0.724896 0.630106 0.278374 
55.398621 15.809250 55.189838 0.119362 0.940255 0.318862 
55.413609 15.801470 55.106468 0.492358 0.858312 -0.144514 
55.337620 15.703570 54.887810 0.229950 0.684183 0.692111 
55.405640 15.748300 54.883171 0.661048 0.634695 0.400222 
55.377541 15.697790 54.735519 0.774929 0.527159 0.348695 
55.416771 15.713980 54.688000 0.920323 0.339616 0.194079 
55.418388 15.692900 54.584461 0.320561 0.705935 0.631583 
55.476749 15.728050 54.565418 0.476675 0.643199 0.599229 
55.523960 15.752160 54.529789 0.272151 0.832749 0.482144 
55.489201 15.694970 54.371849 0.978953 0.203936 -0.007786 
55.492149 15.675160 54.270069 0.581081 0.692739 0.427151 
55.551071 15.710870 54.251869 0.425752 0.837515 0.342497 
55.501381 15.638810 54.071350 0.717810 0.696126 -0.012523 
55.521610 15.636100 53.995232 0.664878 0.745456 -0.047262 
55.519341 15.611060 53.885422 0.649404 0.730434 -0.211520 
55.488350 15.557480 53.732529 0.630834 0.527050 0.569444 
55.540668 15.586610 53.704330 0.416275 0.557200 0.718501 
55.556431 15.579430 53.621349 0.967009 0.049888 0.249808 
55.588001 15.587950 53.562031 0.959813 -0.036365 0.278276 
55.593342 15.570410 53.463341 0.968259 0.179263 0.174183 
55.604740 15.558860 53.373680 0.983081 0.112264 0.144734 
55.622089 15.553230 53.292919 0.473464 0.214333 0.854338 
55.711979 15.619680 53.321121 0.716998 -0.094540 0.690635 
55.724899 15.609640 53.233669 0.983718 0.162882 0.075945 
55.727821 15.589640 53.131130 0.734770 0.671826 0.093612 
55.750568 15.589350 53.058380 0.481024 0.875793 0.040036 
55.763081 15.578860 52.970169 0.548029 0.836308 0.015923 
55.777649 15.570420 52.885021 0.855410 0.513940 -0.064341 
55.769871 15.539720 52.766129 0.555770 0.831331 0.002843 
55.783680 15.530490 52.679722 0.788695 0.612899 -0.048124 
53.800732 16.788210 65.137947 0.716699 0.680987 -0.150331 
53.788849 16.755409 65.022079 0.507673 0.844439 0.170853 
53.839748 16.783590 64.993729 0.331663 0.912141 0.240829 
53.852791 16.774981 64.912537 0.693256 0.719639 0.038932 
53.872639 16.772980 64.840820 0.786954 0.616744 0.018191 
53.849190 16.728880 64.708549 0.711019 0.697939 -0.085635 
53.865021 16.722960 64.631119 0.725224 0.631700 0.273870 
53.909618 16.745001 64.593903 0.517454 0.656468 0.548900 
53.925289 16.738899 64.516190 0.927385 0.370660 -0.050683 
53.905910 16.698709 64.389351 0.964075 0.241416 0.110807 
53.937489 16.708071 64.333847 0.819981 0.465577 0.332970 
53.941139 16.690260 64.239159 0.931667 0.311730 -0.186604 
53.921951 16.650190 64.112373 0.654819 0.750384 0.090203 
53.963638 16.669380 64.070953 0.689343 0.698703 0.191364 
53.935581 16.620649 63.931580 0.900569 0.433071 0.037734 
53.947941 16.611271 63.848888 0.957712 0.283905 0.046743 
53.966759 16.608160 63.775249 0.928555 0.235906 0.286591 
53.999779 16.618879 63.721539 0.840110 0.328181 0.431871 
54.021389 16.618481 63.651772 0.928045 0.219112 0.301203 
54.041779 16.616880 63.580238 0.719322 0.207886 0.662842 
54.099911 16.652050 63.561859 0.647749 0.451956 0.613317 
54.095871 16.626631 63.455860 0.976299 0.216197 0.009984 
54.107380 16.616369 63.371738 0.528523 0.691270 0.492757 
54.145401 16.631929 63.324970 0.890811 0.450420 0.059816 
54.117290 16.583019 63.184849 0.859884 0.510264 -0.015188 
54.133350 16.577150 63.107010 0.948534 0.314596 -0.036222 
54.140751 16.562830 63.016899 0.743041 0.662660 -0.093657 
54.111610 16.512859 62.875069 0.729856 0.674400 -0.111780 
54.139488 16.518490 62.813801 0.746125 0.637227 0.192974 
54.161259 16.518160 62.743851 0.461330 0.766930 0.446087 
54.184559 16.519310 62.676048 0.026394 0.853197 0.520920 
54.260811 16.572140 62.683231 0.514963 0.800291 0.307161 
54.248581 16.538610 62.565060 0.791993 0.489129 0.365375 
54.292770 16.560150 62.526810 0.618391 0.556453 0.554935 
54.307171 16.552601 62.446308 0.874036 0.483819 -0.044488 
54.293480 16.517590 62.325859 0.575002 0.786617 -0.224960 
54.257629 16.460920 62.173870 0.568863 0.822301 0.014685 
54.274719 16.455959 62.097012 0.713053 0.699571 -0.046426 
54.280289 16.439730 62.003719 0.834497 0.493339 -0.245421 
54.250820 16.389231 61.860519 0.703396 0.708386 0.058509 
54.285011 16.400949 61.807850 0.485771 0.758333 0.434691 
54.312469 16.406080 61.745579 0.641196 0.584857 0.496800 
54.347939 16.419050 61.694691 0.591352 0.569106 0.571333 
54.380699 16.429359 61.639938 0.736691 0.640968 0.215514 
54.387531 16.414301 61.548191 0.581091 0.802926 -0.132826 
54.388290 16.393290 61.447720 0.485591 0.855773 -0.178478 
54.380150 16.363560 61.334480 0.686646 0.724223 0.063392 
54.419701 16.380489 61.289299 0.599254 0.707967 0.373735 
54.383862 16.323610 61.136330 0.457509 0.889163 -0.008651 
54.381161 16.299170 61.030670 0.604003 0.793130 -0.078265 
54.395500 16.291380 60.949310 0.649369 0.760468 -0.002765 
54.411991 16.285700 60.870998 0.356740 0.927550 0.111300 
54.433929 16.285351 60.800449 0.625728 0.768404 0.134240 
54.461430 16.290440 60.737862 0.263101 0.893347 0.364293 
54.493450 16.299950 60.681709 0.443413 0.791094 0.421373 
54.547470 16.331020 60.657120 0.403489 0.813950 0.417950 
54.535210 16.297119 60.537392 0.833777 0.519920 -0.185740 
54.511040 16.251539 60.400478 0.892208 0.425725 -0.150741 
54.514790 16.233299 60.303589 0.859878 0.407072 0.308062 
54.568359 16.263920 60.278278 0.256493 0.598831 0.758691 
54.528831 16.203220 60.119049 0.909029 0.310786 -0.277630 
54.501541 16.154499 59.977310 0.865672 0.499513 -0.033147 
54.509830 16.140671 59.886711 0.597559 0.693614 0.402272 
54.556740 16.164730 59.851719 0.540807 0.645816 0.538934 
54.587601 16.173031 59.793591 0.566293 0.579062 0.586515 
54.634281 16.196859 59.758270 0.534756 0.780806 0.323077 
54.610661 16.151670 59.621479 0.681277 0.664549 0.306980 
54.656681 16.174841 59.585171 0.220368 0.673577 0.705502 
54.725410 16.220329 59.581669 -0.098681 0.693523 0.713645 
54.748741 16.221220 59.512589 0.940212 0.330127 0.083769 
54.739769 16.190359 59.396740 0.918462 0.234690 0.318352 
54.783569 16.211349 59.357201 0.879486 0.208061 0.428037 
54.795929 16.201441 59.272148 0.839526 0.542375 0.032036 
54.706089 16.068951 58.935829 -0.082929 0.645387 0.759341 
54.780090 16.119610 58.939949 0.181181 0.949858 0.254838 
