37.611179 26.643520 64.474747 0.666183 0.494124 0.558607 
37.620461 26.636330 64.391243 0.757757 0.587030 0.284957 
37.653622 26.648279 64.337517 0.710034 0.680297 0.181790 
37.638569 26.621550 64.223503 0.821097 0.556964 -0.124859 
37.647339 26.613920 64.139229 0.878537 0.459942 -0.128944 
37.624470 26.580910 64.015297 0.854761 0.469836 -0.220539 
37.603951 26.549770 63.894241 0.844022 0.509262 -0.168165 
37.598080 26.530371 63.791451 0.960260 0.275923 -0.042037 
37.605621 26.521721 63.705410 0.999545 -0.007418 -0.029228 
37.604160 26.505850 63.608059 0.985583 -0.115368 0.123755 
37.611382 26.496929 63.521530 0.791300 0.090169 0.604742 
37.665951 26.526030 63.494419 0.376029 0.043699 0.925577 
37.726768 26.560141 63.475170 0.547665 0.067592 0.833963 
37.769760 26.579941 63.433529 0.705948 0.338870 0.621936 
37.799358 26.588989 63.375061 0.941992 0.284616 0.177892 
37.778141 26.557211 63.252640 0.829324 0.548360 -0.107346 
37.771770 26.537350 63.148842 0.843850 0.534270 0.049737 
37.792610 26.539339 63.079220 0.864487 0.499327 0.057750 
37.793541 26.525330 62.984509 0.867905 0.496239 0.022089 
37.805450 26.520140 62.903591 0.928080 0.327685 0.176892 
37.833858 26.528200 62.843441 0.723971 0.582400 0.369696 
37.856701 26.531780 62.776249 0.681076 0.634479 0.365476 
37.886879 26.541260 62.718288 0.678165 0.630374 0.377784 
37.906170 26.541981 62.646568 0.341874 0.690327 0.637630 
37.969231 26.577900 62.630150 0.239716 0.628469 0.739975 
38.012341 26.597771 62.588520 0.650507 0.661150 0.373794 
38.009201 26.580441 62.488380 0.841987 0.538918 -0.024986 
38.016140 26.571220 62.400951 0.642302 0.765414 0.039881 
38.035309 26.571831 62.328960 0.713200 0.697528 -0.069292 
38.020821 26.545340 62.214279 0.818373 0.538229 -0.201432 
38.003960 26.516939 62.096531 0.689891 0.628821 0.358658 
38.051811 26.540609 62.060791 0.849087 0.457429 0.264215 
38.033920 26.511360 61.941620 0.849343 0.469048 -0.242097 
38.003731 26.472200 61.806770 0.840315 0.507667 0.190118 
38.042130 26.488260 61.758949 0.794568 0.520795 0.312145 
38.044109 26.474970 61.664841 0.852746 0.519836 0.050944 
38.049839 26.464710 61.575451 0.698770 0.516884 0.494521 
38.097462 26.488180 61.539310 0.660960 0.457117 0.595126 
38.118439 26.490191 61.469261 0.570088 0.473039 0.671739 
38.181469 26.526079 61.452740 0.154059 0.442109 0.883632 
38.235550 26.554750 61.424839 0.344301 0.375905 0.860321 
38.284889 26.579599 61.390911 0.462348 0.459199 0.758532 
38.327042 26.598669 61.347839 0.794834 0.501054 0.342321 
38.324280 26.581539 61.247440 0.870557 0.491249 0.028362 
38.330292 26.571470 61.158199 0.931855 0.362199 0.021403 
38.347931 26.570770 61.083759 0.922223 0.305244 0.237342 
38.364540 26.569220 61.007961 0.997529 -0.013385 0.068969 
38.359772 26.550440 60.904812 0.990570 -0.015917 0.136083 
38.360069 26.535730 60.808071 0.883708 0.298496 0.360499 
38.397339 26.550840 60.758610 0.858134 0.220797 0.463524 
36.101791 26.526810 70.171387 0.867379 0.496191 -0.038043 
36.100559 26.511650 70.077911 0.946387 0.321192 -0.034456 
36.120621 26.513411 70.009941 0.869856 0.483956 0.095586 
36.102951 26.485170 69.896629 0.799975 0.550205 0.239407 
36.144451 26.503960 69.854340 0.764747 0.590577 0.257643 
36.127190 26.476021 69.741417 0.874700 0.484611 0.007261 
36.148201 26.478519 69.674454 0.721620 0.637262 0.270483 
36.168549 26.480480 69.606667 0.797512 0.516859 0.311177 
36.189548 26.482960 69.539642 0.840646 0.331178 0.428527 
36.228630 26.499809 69.494362 0.796882 0.340060 0.499338 
36.230049 26.486700 69.403702 0.744560 0.497635 0.444960 
36.278332 26.510870 69.369499 0.753123 0.464390 0.465991 
36.294739 26.509689 69.296867 0.860878 0.299831 0.411085 
36.331631 26.524799 69.248917 0.455805 0.235100 0.858470 
36.394669 26.560711 69.232521 0.546556 0.452896 0.704388 
36.417469 26.564600 69.167557 0.587205 0.694365 0.415990 
36.445702 26.572809 69.109131 0.898389 0.432712 0.075221 
36.430691 26.546591 68.998390 0.641992 0.759656 -0.103773 
36.441200 26.540680 68.918457 0.751060 0.624562 -0.214083 
36.407639 26.499670 68.785172 0.913379 0.376599 -0.154635 
36.411800 26.488689 68.697456 0.948313 0.317290 0.005460 
36.423531 26.483721 68.618874 0.604154 0.578771 0.547743 
36.475719 26.511000 68.589287 0.612438 0.617228 0.493913 
36.480289 26.500330 68.501984 0.402145 0.759462 0.511368 
36.534100 26.528891 68.474380 0.250177 0.383305 0.889094 
36.595322 26.563360 68.455788 0.416509 0.468092 0.779365 
36.622082 26.570360 68.395363 0.777588 0.409213 0.477390 
36.662220 26.588030 68.351173 0.817346 0.492435 0.299086 
36.636539 26.553230 68.226959 0.940615 0.299215 -0.160355 
36.626640 26.530979 68.121849 0.918180 0.377784 -0.119268 
36.637642 26.525410 68.042130 0.887787 0.454728 -0.071112 
36.617420 26.494930 67.924347 0.977583 0.035185 -0.207590 
36.588200 26.457251 67.795517 0.994094 0.097741 -0.047154 
36.585350 26.440590 67.698761 0.953031 0.290727 0.084906 
36.610840 26.446550 67.636520 0.848531 0.515549 0.119184 
36.601669 26.424841 67.531960 0.913089 0.402504 0.065267 
36.630180 26.433189 67.473328 0.751279 0.508488 0.420739 
36.648239 26.433201 67.401932 0.779407 0.423542 0.461667 
36.686649 26.449440 67.355362 0.539921 0.532347 0.651991 
36.726681 26.466990 67.310791 0.597405 0.375883 0.708392 
36.770012 26.487160 67.270241 0.259564 0.197172 0.945383 
36.842720 26.530800 67.265671 0.539228 0.222308 0.812288 
36.872768 26.540371 67.208878 0.882507 0.273169 0.382832 
36.880329 26.531981 67.124519 0.861615 0.487608 0.140922 
36.891960 26.526831 67.045120 0.918968 0.360758 -0.159222 
36.884430 26.506380 66.942192 0.908106 0.400946 -0.120776 
36.884071 26.491640 66.847977 0.963436 0.198267 -0.180224 
36.841000 26.442770 66.701309 0.950545 0.310324 0.012797 
36.861019 26.444290 66.632004 0.923171 0.179269 0.340027 
36.889858 26.452869 66.573517 0.516075 0.056422 0.854683 
36.960239 26.494640 66.566101 0.326548 0.105194 0.939309 
37.011211 26.520910 66.534843 0.402016 0.222434 0.888204 
37.064621 26.549129 66.506599 0.792575 0.102718 0.601061 
37.083721 26.549919 66.436119 0.784329 -0.085595 0.614411 
37.138691 26.579390 66.409813 0.787965 0.117546 0.604396 
37.133461 26.560711 66.309303 0.837195 0.418870 0.351642 
37.170040 26.575460 66.260300 0.903649 0.384546 0.188529 
37.159649 26.552629 66.153343 0.923821 0.376947 -0.066822 
37.176022 26.551220 66.079361 0.909735 0.415107 -0.008287 
37.082821 26.447571 65.775673 0.662652 0.737528 -0.130176 
37.104431 26.479410 65.896713 0.848817 0.457830 -0.264389 
37.092510 26.440781 65.693237 0.769356 0.625301 -0.130731 
37.075649 26.412729 65.577957 0.790007 0.524607 0.317295 
37.116211 26.430639 65.533653 0.589751 0.389407 0.707500 
37.154919 26.447060 65.487053 0.309086 0.293628 0.904571 
37.243801 26.503660 65.502609 -0.105696 0.174897 0.978897 
37.318329 26.548780 65.500427 0.201410 0.432822 0.878692 
37.349930 26.559509 65.445068 0.857438 0.291628 0.423973 
37.383701 26.571989 65.392380 0.885809 0.416039 0.205560 
37.353249 26.533010 65.259956 0.932192 0.360714 -0.030047 
37.378471 26.538620 65.196602 0.853662 0.494669 0.162985 
37.289711 26.452900 64.991577 0.718626 0.630472 0.293396 
37.324520 26.466181 64.940041 0.735172 0.659995 0.154689 
37.317310 26.445780 64.836212 0.627220 0.592918 0.505018 
37.376640 26.478710 64.815117 0.490342 0.315084 0.812580 
37.413361 26.493530 64.765923 0.718324 0.327589 0.613755 
37.449131 26.507570 64.715523 0.424159 0.312146 0.850091 
37.521320 26.550831 64.710510 0.395833 0.307825 0.865194 
37.557098 26.564880 64.660133 0.770369 0.405086 0.492379 
37.573639 26.563499 64.585739 0.856322 0.501924 0.121594 
37.576420 26.551081 64.494148 0.608982 0.578486 0.542674 
37.632000 26.581011 64.468437 0.578296 0.599672 0.553143 
37.651711 26.582170 64.397949 0.795910 0.470817 0.380603 
37.690620 26.598730 64.351418 0.749988 0.601194 0.275833 
37.670910 26.568239 64.231583 0.812348 0.543315 -0.211895 
37.652920 26.539110 64.113777 0.689886 0.706381 -0.158376 
37.659241 26.529499 64.026390 0.679486 0.710164 -0.184299 
37.647701 26.505529 63.916550 0.806952 0.539995 -0.239236 
37.618000 26.466970 63.783890 0.959602 0.188905 -0.208516 
37.576481 26.418909 63.636330 0.925386 0.331351 0.184029 
37.607819 26.429350 63.580070 0.928336 0.134452 0.346576 
37.642479 26.442450 63.527950 0.627417 0.181134 0.757323 
37.690659 26.466419 63.492821 0.289032 0.259490 0.921480 
37.745670 26.495880 63.466270 0.519269 0.177395 0.835997 
37.794109 26.520060 63.431480 0.858691 0.088881 0.504727 
37.797859 26.508320 63.340488 0.836608 0.478000 0.267589 
37.830460 26.519770 63.285759 0.651244 0.755269 0.073824 
37.805431 26.484880 63.158459 0.813815 0.580739 -0.021134 
37.826050 26.486679 63.088570 0.813396 0.581082 0.027046 
37.811989 26.460609 62.974972 0.890187 0.450913 -0.065159 
37.818932 26.451389 62.887760 0.879839 0.359122 0.311311 
37.854919 26.465540 62.837158 0.752913 0.444640 0.485199 
37.878208 26.469481 62.770519 0.836353 0.350133 0.421806 
37.915680 26.484810 62.721760 0.517771 0.549965 0.655325 
37.958549 26.504499 62.679840 0.353499 0.618373 0.701892 
38.001369 26.524130 62.637829 0.661592 0.389562 0.640732 
38.032631 26.534479 62.581230 0.873149 0.374425 0.312118 
38.052502 26.535650 62.510181 0.728642 0.647256 0.223922 
38.074291 26.538361 62.441540 0.753728 0.655485 0.047257 
38.056499 26.509190 62.322739 0.835391 0.528571 -0.150778 
38.057091 26.494829 62.227169 0.827846 0.537218 -0.161454 
38.049252 26.473660 62.120838 0.914288 0.405056 -0.002648 
38.059189 26.466801 62.037010 0.968306 0.249435 -0.012886 
38.044140 26.439810 61.921429 0.935720 0.281909 -0.212028 
38.036911 26.419109 61.815701 0.889372 0.422900 0.173702 
38.063560 26.425690 61.752949 0.956602 0.208781 0.203280 
38.081429 26.425190 61.679031 0.866415 0.422848 0.265566 
38.101540 26.426491 61.607910 0.365966 0.804348 0.468074 
38.142540 26.444639 61.563370 0.476700 0.746963 0.463469 
38.176640 26.457199 61.510021 0.218950 0.770975 0.598045 
38.220638 26.477760 61.469280 0.209944 0.672635 0.709567 
38.268799 26.501680 61.433861 0.254095 0.602789 0.756360 
38.319271 26.527439 61.401371 0.589209 0.529008 0.610723 
38.341862 26.530741 61.333340 0.855106 0.466388 0.226444 
38.363949 26.533621 61.264641 0.888606 0.457091 0.038038 
38.351318 26.508490 61.151581 0.979764 0.190013 -0.062911 
38.350189 26.492640 61.053150 0.993928 0.109802 0.007083 
38.340099 26.469540 60.943211 0.940079 0.173505 0.293508 
38.383282 26.489420 60.901329 0.842843 0.280582 0.459227 
38.406021 26.492800 60.833290 0.863463 0.423285 0.274337 
38.416359 26.486170 60.749352 0.969930 0.220977 0.102002 
36.145981 26.483879 70.194054 0.794885 0.541533 -0.273680 
36.117512 26.447041 70.067886 0.807343 0.588659 0.040973 
36.139500 26.450319 70.002213 0.847174 0.530068 0.036398 
36.145870 26.441170 69.917763 0.809308 0.574021 0.124584 
36.160511 26.438601 69.843201 0.890150 0.455309 0.018079 
36.162140 26.425659 69.752960 0.782168 0.615251 0.098385 
36.183010 26.428040 69.685829 0.844918 0.489536 0.215564 
36.203091 26.429779 69.617722 0.822532 0.519942 0.230438 
36.213482 26.423790 69.537910 0.619458 0.620751 0.480562 
36.258579 26.445440 69.499893 0.474687 0.717156 0.510255 
36.291420 26.457331 69.447090 0.515130 0.813350 0.270377 
36.297489 26.447901 69.362000 0.902603 0.418193 0.102091 
36.316341 26.448629 69.292290 0.770691 0.423602 0.476021 
36.354141 26.464460 69.245430 0.307720 0.366319 0.878134 
36.425892 26.507330 69.239563 0.239005 0.602274 0.761671 
36.453579 26.515100 69.180489 0.787545 0.565612 0.244655 
36.468811 26.512951 69.106354 0.747517 0.619871 0.238700 
36.501400 26.524630 69.053177 0.649288 0.757720 0.065470 
36.456810 26.474800 68.906593 0.872841 0.342270 -0.347850 
36.422699 26.433310 68.772591 0.891344 0.435471 -0.125983 
36.429661 26.424540 68.688263 0.865222 0.480988 0.141567 
36.452000 26.428020 68.622513 0.683345 0.383568 0.621220 
36.504009 26.455151 68.592728 0.699608 0.359810 0.617321 
36.529301 26.460991 68.530540 0.709545 0.484523 0.511648 
36.563171 26.473650 68.478737 0.362117 0.341534 0.867309 
36.630119 26.512699 68.467110 0.692311 0.225897 0.685329 
36.645550 26.510660 68.392906 0.847525 0.204732 0.489680 
36.679909 26.523720 68.341713 0.865686 0.461623 0.193630 
36.666191 26.498421 68.232010 0.867715 0.451266 -0.208400 
36.659679 26.478861 68.131027 0.912340 0.373751 -0.167170 
36.630402 26.441120 68.002251 0.960186 0.096576 -0.262139 
36.592468 26.396469 67.862869 0.928603 0.369455 -0.034627 
36.611229 26.397051 67.792458 0.850824 0.523087 0.049782 
36.613461 26.384430 67.701874 0.919810 0.376958 0.108866 
36.637131 26.388920 67.637413 0.961773 0.263457 0.074717 
36.616779 26.358250 67.519173 0.920534 0.268215 0.284038 
36.658161 26.376881 67.476273 0.708126 0.441434 0.551084 
36.680981 26.380680 67.410683 0.628842 0.533114 0.565992 
36.729301 26.404840 67.376228 0.665165 0.472765 0.577969 
36.743309 26.401600 67.299828 0.606043 0.380613 0.698460 
36.811199 26.441389 67.289322 0.191657 0.304207 0.933127 
36.856369 26.463039 67.251053 0.761431 0.073412 0.644075 
36.894741 26.479250 67.204437 0.576030 0.397333 0.714364 
36.942169 26.502710 67.168930 0.721959 0.608702 0.329024 
36.918720 26.469509 67.046516 0.871443 0.441913 -0.212838 
36.894341 26.435560 66.922897 0.961256 0.195852 -0.193983 
36.868931 26.400770 66.797943 0.969604 0.151710 -0.191968 
36.872959 26.389509 66.709053 0.967621 0.252401 0.001720 
36.869579 26.372311 66.611000 0.713218 0.418306 0.562441 
36.923149 26.400650 66.582893 0.318914 0.217062 0.922593 
36.987919 26.437960 66.568581 0.508121 -0.096969 0.855810 
37.034241 26.460510 66.531601 0.795754 -0.162674 0.583363 
37.047691 26.456770 66.454147 0.909176 -0.267784 0.318890 
37.081650 26.469419 66.401939 0.445681 -0.083990 0.891243 
37.152939 26.511950 66.395714 0.690898 0.077572 0.718779 
37.185169 26.523230 66.341377 0.796086 0.407063 0.447824 
37.202671 26.522720 66.268860 0.921440 0.379419 0.083609 
37.191860 26.499531 66.161369 0.935868 0.301241 -0.182772 
37.152180 26.453220 66.018173 0.789989 0.554545 -0.261530 
37.133240 26.423510 65.900513 0.677731 0.707676 -0.199688 
37.135849 26.411039 65.809387 0.749163 0.633471 -0.193568 
37.115139 26.379881 65.689377 0.814948 0.547432 -0.190203 
37.112091 26.362860 65.591164 0.794562 0.535022 0.287094 
37.155048 26.382690 65.549828 0.413830 0.534590 0.736857 
37.197941 26.402460 65.508408 0.340216 0.270682 0.900546 
37.263592 26.440470 65.495193 -0.022493 0.012552 0.999668 
37.355190 26.499290 65.514191 0.567586 0.213049 0.795271 
37.362709 26.490730 65.428963 0.915727 0.129572 0.380337 
37.401321 26.507071 65.382263 0.926984 0.138481 0.348602 
37.352840 26.453600 65.227432 0.946905 0.312598 -0.075192 
37.341591 26.429960 65.118736 0.825594 0.549513 -0.128179 
37.344872 26.417959 65.028038 0.474643 0.870878 0.127617 
37.370949 26.424240 64.965637 0.788167 0.615438 0.005454 
37.364319 26.404289 64.862541 0.782283 0.539330 0.311700 
37.400829 26.418921 64.813057 0.601418 0.367825 0.709226 
37.446838 26.441191 64.775421 0.670664 0.381708 0.636011 
37.475819 26.449780 64.716560 0.447822 0.343585 0.825472 
37.537560 26.484671 64.698532 0.414929 0.254183 0.873628 
37.580971 26.504841 64.657654 0.518342 0.522326 0.677124 
37.623619 26.524401 64.615837 0.645626 0.668754 0.368694 
37.637989 26.521271 64.538712 0.335220 0.846301 0.414007 
37.680080 26.540380 64.496193 0.686416 0.677235 0.264927 
37.673889 26.520729 64.393318 0.710206 0.499036 0.496559 
37.731972 26.552679 64.370758 0.701217 0.547947 0.456124 
37.719299 26.527809 64.259712 0.693936 0.719882 -0.014895 
37.747059 26.535410 64.199203 0.654229 0.756268 0.006571 
37.719898 26.498890 64.069893 0.747651 0.604123 -0.275778 
37.663811 26.439100 63.904251 0.917911 0.275471 -0.285579 
37.617432 26.387100 63.750648 0.900228 0.390590 -0.192429 
37.623829 26.377489 63.663139 0.910974 0.409679 -0.047860 
37.614811 26.355499 63.556252 0.903761 0.093709 0.417654 
37.661049 26.377899 63.518661 0.308126 0.153293 0.938914 
37.735600 26.423071 63.516640 0.440730 0.207481 0.873332 
37.768089 26.434429 63.461800 0.805391 0.159960 0.570752 
37.794121 26.440590 63.398830 0.697327 0.364651 0.617061 
37.846828 26.468210 63.369400 0.409806 0.693396 0.592673 
37.869671 26.471809 63.302399 0.849874 0.526297 -0.026937 
37.844379 26.436680 63.174759 0.588793 0.808280 0.002487 
37.867081 26.440140 63.107491 0.672140 0.737917 -0.060875 
37.852489 26.413601 62.993198 0.767637 0.617640 -0.171039 
37.850060 26.396839 62.894180 0.760376 0.556371 0.335082 
37.895500 26.418591 62.855499 0.704464 0.535874 0.465370 
37.901470 26.408581 62.767010 0.702934 0.459967 0.542507 
37.959469 26.440439 62.744171 0.369665 0.517584 0.771657 
37.993160 26.452721 62.690639 0.618090 0.531671 0.579043 
38.028641 26.466459 62.639370 0.658420 0.534709 0.529687 
38.058128 26.475361 62.580502 0.629793 0.667030 0.398034 
38.085789 26.482800 62.519310 0.705667 0.673646 0.219623 
38.098309 26.478029 62.438931 0.734840 0.677867 -0.022514 
38.103191 26.467100 62.348831 0.735062 0.660319 -0.153824 
38.087528 26.439619 62.232658 0.869196 0.425088 -0.252584 
38.058369 26.401239 62.099289 0.910662 0.402610 0.092741 
38.089191 26.411190 62.041931 0.949699 0.303834 0.075873 
38.061600 26.374060 61.910400 0.780507 0.616848 -0.101524 
38.063061 26.360340 61.815701 0.891289 0.449542 -0.059298 
38.060860 26.343660 61.716290 0.742122 0.550126 0.382905 
38.103779 26.363331 61.674171 0.387235 0.623130 0.679528 
38.160141 26.393860 61.649170 0.506902 0.644577 0.572338 
38.179371 26.394449 61.576920 0.665251 0.512832 0.542628 
38.230099 26.420429 61.544762 0.110134 0.628825 0.769707 
38.280640 26.446270 61.512371 0.399497 0.612367 0.682209 
38.320740 26.463680 61.466679 0.485626 0.573441 0.659797 
38.355282 26.476601 61.413898 0.843914 0.370816 0.387691 
38.379070 26.480860 61.347401 0.899292 0.369717 0.233630 
38.373661 26.461540 61.243599 0.963894 0.226596 -0.139866 
38.358860 26.434620 61.127731 0.989793 0.130060 -0.058252 
38.374561 26.432329 61.050781 0.991298 0.128926 0.026562 
38.366600 26.410919 60.943550 0.948417 0.142655 0.283116 
38.396099 26.419750 60.884159 0.864890 0.244543 0.438365 
38.418442 26.422800 60.815601 0.972171 0.181543 0.148070 
36.185890 26.437559 70.211571 0.803775 0.537344 -0.255356 
36.173401 26.413410 70.104584 0.829304 0.536870 -0.155004 
36.176571 26.401699 70.016312 0.772857 0.634419 0.014283 
36.176849 26.387690 69.924553 0.842810 0.536212 0.046344 
36.198009 26.390289 69.857811 0.804049 0.582308 0.120094 
36.200970 26.378401 69.769180 0.832613 0.553780 -0.009115 
36.203529 26.366171 69.680023 0.894011 0.386569 0.226513 
36.237190 26.378710 69.628227 0.768907 0.440127 0.463757 
36.268860 26.389669 69.574051 0.521752 0.617418 0.588702 
36.305840 26.404850 69.526253 0.614540 0.582133 0.532411 
36.335480 26.414181 69.469597 0.882742 0.437463 0.171444 
36.328110 26.394030 69.368317 0.798092 0.576806 0.174196 
36.351780 26.398600 69.304413 0.474572 0.693560 0.541993 
36.401642 26.424040 69.272110 -0.047333 0.533977 0.844173 
36.480751 26.472790 69.275146 0.631956 0.401837 0.662690 
36.481331 26.458950 69.183327 0.917819 0.309776 0.248290 
36.509521 26.467119 69.124863 0.714420 0.578218 0.394040 
36.526981 26.466721 69.053383 0.861344 0.494386 -0.116912 
36.486061 26.419781 68.911217 0.623235 0.703732 -0.341085 
36.462769 26.386881 68.790314 0.749786 0.645928 -0.143522 
36.467018 26.375931 68.702682 0.912673 0.408553 -0.010578 
36.477551 26.369980 68.622627 0.835338 0.169619 0.522914 
36.523960 26.392651 68.586037 0.694589 0.294413 0.656404 
36.547249 26.396870 68.521408 0.787308 0.209240 0.579970 
36.602871 26.426901 68.496033 0.454535 0.336683 0.824647 
36.625431 26.430540 68.430489 0.715357 0.425157 0.554533 
36.669800 26.451580 68.391434 0.531265 0.387684 0.753299 
36.723251 26.479870 68.363419 0.803612 0.425794 0.415821 
36.692871 26.441240 68.233437 0.913886 0.344928 -0.214095 
36.678398 26.415300 68.122757 0.922773 0.279447 -0.265330 
36.638691 26.369200 67.981277 0.914417 0.313752 -0.255738 
36.636829 26.353310 67.885803 0.775113 0.631318 0.025225 
36.650200 26.349569 67.808823 0.839029 0.541539 -0.052592 
36.630600 26.319500 67.691620 0.847532 0.530590 0.012803 
36.642830 26.314831 67.613167 0.969864 0.216198 -0.112350 
36.639320 26.297590 67.515472 0.709379 0.462207 0.532115 
36.691971 26.325220 67.486320 0.699254 0.397705 0.594033 
36.713699 26.328140 67.419388 0.766487 0.339473 0.545212 
36.752781 26.344919 67.373650 0.735520 0.386880 0.556178 
36.782330 26.354080 67.316254 0.412078 0.469249 0.781023 
36.843830 26.388781 67.297928 0.583577 0.273342 0.764671 
36.866440 26.392401 67.232033 0.596742 0.307925 0.741000 
36.929630 26.428459 67.215813 0.636895 0.245004 0.730984 
36.946590 26.427549 67.142960 0.923193 0.357754 0.140451 
36.958752 26.422800 67.064201 0.859869 0.503620 -0.083620 
36.912460 26.371281 66.913689 0.854515 0.426257 -0.296830 
36.880390 26.331129 66.780533 0.971315 0.195084 -0.135974 
36.873089 26.310780 66.677689 0.940080 0.204053 0.273152 
36.918751 26.332800 66.639870 0.652142 0.381609 0.655046 
36.939442 26.334850 66.571373 0.770700 0.282265 0.571269 
36.971439 26.345930 66.516739 0.819938 -0.048287 0.570412 
37.019428 26.369820 66.481781 0.801375 0.016667 0.597930 
37.040218 26.371929 66.413353 0.697141 0.073041 0.713204 
37.117760 26.419470 66.414787 0.359307 0.027396 0.932817 
37.154308 26.434200 66.365761 0.842993 -0.144264 0.518219 
37.189541 26.447870 66.315102 0.827304 -0.013526 0.561592 
37.224770 26.461540 66.264427 0.916230 0.327871 0.230265 
37.201340 26.428221 66.141342 0.807466 0.558961 -0.188577 
37.207199 26.418350 66.054352 0.741206 0.652735 -0.156685 
37.200432 26.398359 65.951714 0.784562 0.573300 -0.236196 
37.164490 26.354980 65.812973 0.811726 0.541589 -0.218591 
37.164211 26.340160 65.718224 0.818620 0.536480 -0.205064 
37.136860 26.303640 65.589912 0.661729 0.616025 0.427350 
37.193581 26.334511 65.565620 0.620947 0.431101 0.654658 
37.213760 26.336069 65.496071 0.493539 0.243286 0.835003 
37.300961 26.391371 65.509560 -0.054390 0.062650 0.996552 
37.366508 26.429331 65.496269 0.746166 0.109238 0.656737 
37.379330 26.424990 65.417580 0.910558 0.262849 0.319053 
37.405270 26.431170 65.355164 0.905975 0.374981 0.196462 
37.401669 26.413660 65.256027 0.797694 0.573486 -0.186543 
37.383610 26.384529 65.138878 0.787685 0.613409 -0.057288 
37.404980 26.387030 65.070663 0.833502 0.551734 0.029392 
37.386250 26.357349 64.952553 0.942088 0.330390 -0.057563 
37.391769 26.347111 64.864532 0.765500 0.506122 0.397305 
37.434021 26.366350 64.822212 0.531746 0.495166 0.687064 
37.469231 26.379950 64.771118 0.666788 0.368808 0.647592 
37.517780 26.404249 64.736641 0.348845 0.292371 0.890408 
37.574402 26.435030 64.712219 0.437028 0.211687 0.874182 
37.622871 26.459261 64.677673 0.702137 0.247085 0.667797 
37.647209 26.464130 64.613007 0.716194 0.375132 0.588508 
37.692162 26.485540 64.574051 0.707755 0.488153 0.510676 
37.707199 26.482929 64.497749 0.928399 0.353041 0.115919 
37.711380 26.471581 64.407822 0.746820 0.497643 0.441148 
37.752979 26.490299 64.364647 0.893521 0.319800 0.315196 
37.756241 26.478201 64.273521 0.898083 0.438614 0.032639 
37.755749 26.463091 64.177650 0.973595 0.163040 -0.159784 
37.746021 26.440531 64.070137 0.953473 0.299831 -0.031464 
37.647820 26.332081 63.756210 0.914905 0.328847 -0.234115 
37.681389 26.373831 63.893768 0.862344 0.386048 -0.327613 
37.618721 26.293921 63.624168 0.937142 0.348456 -0.018552 
37.634789 26.292061 63.548721 0.713417 0.338167 0.613742 
37.694382 26.325211 63.527889 0.305979 0.162168 0.938125 
37.743031 26.349569 63.493340 0.586167 0.047996 0.808767 
37.794579 26.376249 63.462429 0.499376 0.361893 0.787183 
37.834999 26.393990 63.417561 0.372108 0.508873 0.776263 
37.887772 26.421650 63.388210 0.748917 0.414806 0.516778 
37.889259 26.408051 63.294331 0.806241 0.578219 0.125053 
37.918140 26.416491 63.234890 0.512699 0.849047 0.127510 
37.917011 26.400770 63.137619 0.852360 0.474081 -0.220748 
37.896198 26.369200 63.015499 0.851375 0.492130 -0.181576 
37.882370 26.343229 62.902100 0.689807 0.648534 0.321823 
37.924179 26.362061 62.858822 0.740053 0.572149 0.353505 
37.934940 26.355881 62.776360 0.416701 0.698181 0.582155 
37.994492 26.389000 62.755501 0.379020 0.608384 0.697290 
38.029911 26.402679 62.704151 0.587208 0.547065 0.596579 
38.071751 26.421530 62.660919 0.479564 0.571908 0.665538 
38.114410 26.441050 62.618729 0.473262 0.740276 0.477509 
38.133049 26.441200 62.546131 0.717115 0.672419 0.183300 
38.157490 26.446030 62.480839 0.832085 0.552056 0.053558 
38.143890 26.420191 62.367340 0.875633 0.450970 -0.172897 
38.115639 26.382530 62.235199 0.779587 0.554065 -0.291986 
38.092258 26.348780 62.109150 0.795946 0.582593 -0.164484 
38.079071 26.323231 61.995941 0.664158 0.721396 0.196166 
38.132080 26.351070 61.966709 0.492641 0.853229 0.171189 
38.098461 26.309031 61.827450 0.746160 0.663231 -0.058050 
38.125679 26.316050 61.765419 0.454794 0.829004 0.325446 
38.152721 26.322929 61.703140 0.554834 0.696334 0.455278 
38.183300 26.332661 61.645351 0.632287 0.674262 0.381554 
38.205688 26.335779 61.577110 0.422750 0.620857 0.660166 
38.275150 26.376890 61.568810 0.360424 0.520245 0.774235 
38.301849 26.383480 61.506031 0.733343 0.293629 0.613180 
38.352341 26.409281 61.473591 0.712698 0.360195 0.601931 
38.360062 26.400551 61.386600 0.901323 0.236843 0.362660 
38.400730 26.418421 61.341621 0.867291 0.385991 0.314352 
38.391151 26.395710 61.232479 0.911221 0.347001 -0.221961 
38.358891 26.354660 61.094292 0.997716 0.031889 -0.059550 
38.354778 26.336340 60.991989 0.994902 -0.033668 0.095063 
38.381710 26.343090 60.929321 0.762371 0.111112 0.637529 
38.429409 26.366631 60.893211 0.882123 0.162938 0.441939 
38.422852 26.346310 60.787651 0.991543 -0.120092 0.049189 
36.216381 26.383760 70.217796 0.888715 0.368811 -0.272329 
36.185322 26.344780 70.088509 0.738333 0.654425 0.163071 
36.225739 26.362720 70.044960 0.773678 0.611224 0.166819 
36.206779 26.333361 69.930069 0.831377 0.547391 0.095793 
36.230770 26.338200 69.866730 0.814038 0.566782 0.126886 
36.233959 26.326481 69.778374 0.873875 0.478848 -0.083949 
36.227699 26.307211 69.678589 0.767822 0.606079 0.207649 
36.254059 26.313931 69.618011 0.686995 0.498138 0.529052 
36.297180 26.334009 69.577621 0.706570 0.331792 0.625038 
36.331131 26.346769 69.526169 0.857257 0.334608 0.391342 
36.333019 26.333969 69.436043 0.683333 0.678104 0.270613 
36.373070 26.351601 69.391930 0.545468 0.759759 0.353880 
36.398750 26.357759 69.330460 0.422587 0.673725 0.606230 
36.449928 26.384260 69.299759 0.579708 0.387615 0.716724 
36.466930 26.383499 69.227783 0.819946 0.375100 0.432421 
36.502140 26.397261 69.177788 0.715742 0.386644 0.581566 
36.545582 26.417580 69.137733 0.608047 0.583542 0.538291 
36.564419 26.418280 69.067932 0.874752 0.484486 0.009047 
36.579651 26.416090 68.993721 0.694485 0.718541 0.037280 
36.503990 26.341370 68.809410 0.914278 0.351188 -0.201897 
36.474079 26.303150 68.680397 0.963224 0.268482 0.010860 
36.492630 26.303579 68.610039 0.612282 0.318228 0.723769 
36.560020 26.343000 68.598892 0.706786 0.289917 0.645292 
36.559589 26.328279 68.505493 0.630701 0.265063 0.729354 
36.640308 26.378349 68.510551 0.481941 0.202382 0.852510 
36.678059 26.394100 68.463463 0.766834 0.337162 0.546157 
36.695278 26.393471 68.391418 0.817266 0.257669 0.515444 
36.724289 26.402250 68.333687 0.970287 0.230934 0.072195 
36.715221 26.380600 68.229622 0.907391 0.372479 -0.194679 
36.692600 26.348120 68.108994 0.871546 0.387950 -0.299837 
36.661419 26.308790 67.977859 0.830849 0.541328 -0.129047 
36.673199 26.303780 67.898987 0.667808 0.742466 0.052697 
36.679852 26.294661 67.813828 0.818069 0.566474 -0.099355 
36.685730 26.284920 67.727676 0.805602 0.574330 -0.145430 
36.648800 26.240940 67.589256 0.721698 0.689498 0.061195 
36.680672 26.251961 67.534729 0.789588 0.486173 0.374416 
36.707790 26.259180 67.474403 0.857697 0.216179 0.466501 
36.736500 26.267670 67.415977 0.662870 0.366239 0.653049 
36.783009 26.290390 67.379318 0.515538 0.518979 0.681823 
36.815948 26.302259 67.326057 0.467435 0.505005 0.725586 
36.866692 26.328360 67.294579 0.582631 0.354019 0.731582 
36.907139 26.346239 67.250511 0.550746 0.408785 0.727719 
36.943340 26.360720 67.201241 0.732548 0.305495 0.608314 
36.983681 26.378510 67.157043 0.876706 0.373937 0.302586 
36.965919 26.349791 67.041580 0.884172 0.440009 -0.156945 
36.950378 26.322840 66.928757 0.794999 0.540499 -0.275385 
36.893200 26.262550 66.764763 0.903501 0.395944 -0.164055 
36.888882 26.244560 66.665573 0.882642 0.275042 0.381176 
36.933529 26.265779 66.626503 0.606672 0.211083 0.766416 
36.983330 26.291109 66.593773 0.776709 0.334434 0.533739 
36.988762 26.280920 66.506462 0.600810 0.308320 0.737541 
37.056889 26.320930 66.496277 0.626526 0.436536 0.645679 
37.061989 26.310471 66.408524 0.680901 0.244566 0.690334 
37.131130 26.351299 66.399612 0.609866 0.021786 0.792205 
37.155491 26.356260 66.335564 0.805295 0.039912 0.591529 
37.205978 26.382151 66.303688 0.523715 0.130697 0.841808 
37.254009 26.406071 66.268791 0.884495 0.283536 0.370508 
37.254379 26.391800 66.175072 0.854719 0.515949 -0.057027 
37.231731 26.359060 66.052879 0.870012 0.436173 -0.229854 
37.211868 26.328541 65.934052 0.867771 0.441228 -0.228673 
37.207901 26.310749 65.834793 0.863352 0.459538 -0.208442 
37.182499 26.275780 65.708977 0.915127 0.356961 -0.187405 
37.186260 26.264170 65.619164 0.754675 0.594217 0.278158 
37.214661 26.272320 65.559799 0.684604 0.522513 0.508230 
37.251129 26.286949 65.510422 0.181605 0.482825 0.856679 
37.327991 26.333981 65.511124 0.055633 0.159410 0.985644 
37.390202 26.369270 65.493683 0.615136 0.391963 0.684085 
37.407570 26.368570 65.420639 0.665282 0.670494 0.328386 
37.436390 26.377050 65.361763 0.684168 0.724158 0.086655 
37.429760 26.357071 65.258858 0.783529 0.581550 -0.218820 
37.415760 26.331181 65.146751 0.845638 0.506004 -0.169872 
37.399731 26.303640 65.032028 0.894851 0.442778 -0.056477 
37.415970 26.302000 64.957382 0.902394 0.427763 0.052003 
37.426861 26.296061 64.876038 0.699988 0.505618 0.504349 
37.473351 26.318710 64.838997 0.649971 0.474686 0.593473 
37.495041 26.321430 64.771057 0.761592 0.338599 0.552566 
37.536579 26.340111 64.727837 0.566137 0.176990 0.805086 
37.585972 26.365089 64.694397 0.650150 0.059961 0.757436 
37.624161 26.381069 64.647011 0.677849 0.059024 0.732828 
37.678619 26.410130 64.619926 0.698984 0.176197 0.693092 
37.696781 26.410009 64.547523 0.943952 0.034122 0.328315 
37.730679 26.422541 64.494759 0.928129 0.160252 0.336001 
37.743301 26.417959 64.415382 0.906774 0.240210 0.346498 
37.770920 26.425430 64.354713 0.929120 0.248847 0.273515 
37.782051 26.419649 64.273422 0.940756 0.335665 -0.048035 
37.752911 26.381460 64.141647 0.808531 0.588162 -0.018524 
37.771992 26.382059 64.070213 0.882941 0.468834 -0.024697 
37.706402 26.314529 63.892601 0.868983 0.372934 -0.325253 
37.654968 26.258369 63.732632 0.946713 0.294178 -0.131123 
37.658161 26.246149 63.641071 0.908423 0.418015 -0.005578 
37.661949 26.234400 63.550209 0.706116 0.342166 0.619938 
37.720982 26.267099 63.528660 0.363621 0.261595 0.894063 
37.765800 26.288370 63.489300 0.285410 0.370914 0.883721 
37.828171 26.323780 63.472000 0.447901 0.352087 0.821839 
37.869129 26.341940 63.427792 0.716719 0.254268 0.649355 
37.898529 26.350809 63.369049 0.764791 0.425868 0.483457 
37.931080 26.362200 63.314251 0.622515 0.666876 0.409575 
37.958691 26.369600 63.253208 0.913603 0.404766 0.038647 
37.916599 26.320860 63.104309 0.889945 0.443430 -0.106622 
37.925789 26.313419 63.019981 0.890764 0.448294 -0.074650 
37.931389 26.303080 62.931068 0.661079 0.701134 0.267183 
37.960640 26.311790 62.871971 0.581756 0.686586 0.436074 
38.000900 26.329380 62.826759 0.569034 0.593825 0.568834 
38.033920 26.341120 62.772388 0.721145 0.443895 0.531890 
38.060329 26.347540 62.709671 0.792705 0.301171 0.530014 
38.101460 26.365820 62.665539 0.423134 0.361404 0.830870 
38.154251 26.393499 62.636150 0.738764 0.431999 0.517305 
38.161430 26.384411 62.549049 0.932291 0.357359 0.055920 
38.151279 26.361320 62.439949 0.803342 0.593681 0.046729 
38.173161 26.364071 62.371380 0.767910 0.638879 -0.046355 
38.169739 26.346399 62.270691 0.724850 0.654204 -0.215892 
38.150490 26.315950 62.149879 0.720178 0.653646 -0.232575 
38.146210 26.297569 62.047970 0.622087 0.781147 0.053085 
38.164631 26.297501 61.974850 0.894815 0.438498 -0.083814 
38.140060 26.262720 61.847069 0.637522 0.768132 0.059481 
38.166801 26.269350 61.784439 0.461096 0.836094 0.297216 
38.193851 26.276230 61.722172 0.516003 0.693498 0.502794 
38.247639 26.304701 61.693909 0.446770 0.729628 0.517726 
38.257179 26.297440 61.609348 0.410584 0.750318 0.518115 
38.309738 26.324909 61.579521 0.701840 0.452147 0.550440 
38.325378 26.322559 61.502659 0.575500 0.464001 0.673427 
38.383759 26.354740 61.480270 0.706788 0.476618 0.522768 
38.385971 26.341539 61.386238 0.782950 0.431194 0.448399 
38.434681 26.365910 61.351521 0.565236 0.731465 0.381402 
38.420670 26.339581 61.236691 0.833395 0.486382 -0.262460 
38.369942 26.283569 61.074909 0.968380 0.212781 -0.130246 
38.356510 26.257690 60.960670 0.911240 0.212513 0.352816 
38.402760 26.280050 60.922691 0.868159 0.028036 0.495494 
38.400459 26.263149 60.822578 0.992352 -0.069193 0.102223 
38.422871 26.266239 60.754070 0.885868 0.029369 0.463006 
36.238461 26.323240 70.213943 0.893750 0.415537 -0.168938 
36.239841 26.310080 70.123573 0.813908 0.580624 -0.020722 
36.231548 26.289200 70.021530 0.852901 0.521158 -0.030888 
36.246449 26.286800 69.947304 0.797383 0.588803 0.132252 
36.264370 26.286800 69.876671 0.864814 0.496827 0.072526 
36.261589 26.270290 69.781113 0.771598 0.635404 0.029964 
36.282310 26.272511 69.713791 0.784351 0.609926 0.113066 
36.295189 26.268471 69.636993 0.809935 0.496157 0.312784 
36.315781 26.270590 69.569473 0.721393 0.390538 0.571903 
36.363739 26.294510 69.534882 0.467277 0.531951 0.706173 
36.410568 26.317551 69.498947 0.586332 0.697692 0.411631 
36.406551 26.300020 69.401688 0.839874 0.511455 0.181730 
36.436619 26.309681 69.345520 0.474884 0.635458 0.608833 
36.473740 26.324961 69.297852 0.600544 0.557632 0.573056 
36.517159 26.345270 69.257782 0.596012 0.659744 0.457721 
36.527039 26.338820 69.177177 0.668113 0.471693 0.575440 
36.585239 26.370911 69.154968 0.640141 0.563902 0.521760 
36.568729 26.343380 69.042389 0.988611 0.120690 -0.089902 
36.573200 26.332590 68.955132 0.999882 -0.011695 -0.009965 
36.510700 26.268320 68.786720 0.931960 0.260923 -0.251732 
36.500969 26.246170 68.682121 0.915666 0.388148 0.104389 
36.527771 26.253180 68.621773 0.755078 0.233952 0.612474 
36.567741 26.270710 68.577362 0.843146 0.148660 0.516725 
36.596451 26.279249 68.519287 0.744326 0.191860 0.639663 
36.634541 26.295280 68.472610 0.672214 0.047254 0.738847 
36.675831 26.313860 68.429787 0.684863 0.112260 0.719973 
36.728680 26.341681 68.401039 0.700875 0.300533 0.646880 
36.747719 26.342489 68.331192 0.930267 0.356480 0.086752 
36.742931 26.324230 68.232307 0.878613 0.445020 -0.173195 
36.729240 26.298861 68.122543 0.798390 0.542805 -0.260645 
36.704571 26.264690 67.999313 0.531764 0.846725 -0.016855 
36.733292 26.273211 67.941093 0.533233 0.845930 -0.008132 
36.713459 26.242901 67.823647 0.808550 0.551949 -0.203958 
36.704971 26.221649 67.719971 0.848247 0.514682 -0.124821 
36.720371 26.219500 67.645393 0.628439 0.776542 -0.045255 
36.690208 26.180889 67.515137 0.731564 0.619383 0.284920 
36.733570 26.201090 67.474632 0.543337 0.599648 0.587543 
36.769428 26.215290 67.424950 0.379854 0.576071 0.723777 
36.824619 26.244970 67.398911 0.293825 0.681974 0.669759 
36.855499 26.255180 67.343132 0.581808 0.601516 0.547429 
36.893978 26.271481 67.296654 0.515440 0.494673 0.699729 
36.935768 26.290430 67.254227 0.754717 0.273252 0.596436 
36.973129 26.305820 67.206360 0.764550 0.323214 0.557671 
36.987320 26.302670 67.130096 0.943108 0.321366 0.085272 
37.005199 26.302481 67.058327 0.852622 0.517383 0.073148 
36.927490 26.211161 66.775368 0.864346 0.438690 -0.245881 
36.954300 26.247181 66.902107 0.854037 0.403212 -0.328697 
36.914082 26.185860 66.664993 0.942830 0.194782 0.270429 
36.958611 26.206980 66.625771 0.791444 -0.000621 0.611241 
36.978168 26.208090 66.555847 0.833161 0.000971 0.553030 
37.031891 26.236570 66.527924 0.341057 0.237079 0.909656 
37.079048 26.259800 66.491943 0.851368 0.216743 0.477699 
37.089920 26.253941 66.411278 0.564985 0.391184 0.726476 
37.154449 26.291090 66.396698 0.640225 0.280058 0.715318 
37.173859 26.292070 66.326523 0.685331 0.268396 0.676967 
37.232571 26.324560 66.304779 0.697382 0.104860 0.708987 
37.248131 26.322451 66.229828 0.930153 0.162921 0.329047 
37.279839 26.333281 66.174767 0.915543 0.370191 0.157288 
37.269402 26.310301 66.067642 0.839007 0.504857 -0.202945 
37.250751 26.280729 65.950302 0.832341 0.488360 -0.262133 
37.220360 26.241720 65.818367 0.900080 0.341985 -0.270005 
37.204880 26.214661 65.704781 0.830670 0.554524 -0.049898 
37.216949 26.209700 65.625237 0.699065 0.617518 0.360528 
37.258572 26.228460 65.582260 0.387903 0.677036 0.625423 
37.296928 26.244600 65.535233 0.183105 0.558415 0.809101 
37.361900 26.282110 65.521187 0.166531 0.209577 0.963507 
37.425411 26.318451 65.505379 0.501000 0.329141 0.800416 
37.462749 26.333771 65.457108 0.679487 0.493081 0.543294 
37.495602 26.345490 65.403267 0.742188 0.614098 0.268403 
37.480091 26.318359 65.289337 0.663179 0.709394 -0.238651 
37.458511 26.286341 65.167793 0.727032 0.628586 -0.276232 
37.444649 26.260521 65.055771 0.725320 0.662295 -0.187818 
37.432178 26.235800 64.945412 0.836196 0.543453 0.073725 
37.458809 26.242491 64.883636 0.786912 0.361683 0.499956 
37.499519 26.260490 64.839394 0.719609 0.383758 0.578699 
37.523300 26.264891 64.774063 0.810487 0.308276 0.498073 
37.565708 26.284260 64.731918 0.594941 0.188758 0.781291 
37.610710 26.305719 64.693008 0.570446 0.335967 0.749478 
37.646561 26.319820 64.642693 0.665046 0.256388 0.701412 
37.692730 26.342211 64.605247 0.849232 0.175457 0.498016 
37.703011 26.335739 64.522987 0.902984 0.257803 0.343741 
37.733299 26.345360 64.465691 0.848970 0.345801 0.399589 
37.756779 26.349501 64.399857 0.828238 0.358204 0.430944 
37.792648 26.363609 64.349518 0.910837 0.260569 0.320124 
37.803638 26.357691 64.268021 0.923846 0.376896 0.066771 
37.820358 26.356380 64.193657 0.819974 0.571237 -0.036481 
37.782959 26.311489 64.051460 0.945848 0.151874 -0.286890 
37.673481 26.193781 63.723289 0.974670 0.221678 -0.029612 
37.672089 26.177839 63.625961 0.904235 0.410644 0.117176 
37.691860 26.178940 63.555141 0.561708 0.452969 0.692317 
37.755211 26.215130 63.539021 0.177146 0.304958 0.935746 
37.815060 26.248520 63.518551 0.356085 0.408637 0.840369 
37.850342 26.262110 63.467209 0.768093 0.229985 0.597612 
37.886478 26.276390 63.416931 0.367501 0.495903 0.786780 
37.942169 26.306419 63.391251 0.546051 0.638661 0.542163 
37.967060 26.311640 63.326820 0.807689 0.564209 0.171195 
37.948669 26.281969 63.207829 0.943577 0.298345 -0.143713 
37.965118 26.280371 63.132679 0.854557 0.519332 0.005067 
37.943531 26.248091 63.009529 0.849647 0.519421 0.091113 
37.972980 26.256969 62.950699 0.647777 0.664997 0.371704 
37.998249 26.262461 62.886570 0.788106 0.538271 0.298586 
38.012371 26.258961 62.808338 0.739001 0.409176 0.535212 
38.060879 26.283199 62.773540 0.830171 0.238954 0.503704 
38.075489 26.280081 62.695881 0.657774 0.235427 0.715477 
38.138519 26.316031 62.679440 0.515737 0.276710 0.810831 
38.166019 26.323320 62.618069 0.914019 0.218984 0.341491 
38.191601 26.329050 62.554241 0.795919 0.517224 0.314630 
38.219299 26.336491 62.493080 0.757319 0.637836 0.140117 
38.216381 26.319210 62.393089 0.867931 0.489093 -0.086514 
38.206139 26.296009 62.283749 0.869972 0.441886 -0.218827 
38.185478 26.264391 62.161129 0.864910 0.471986 -0.170762 
38.186390 26.250170 62.065811 0.769368 0.636820 -0.050330 
38.179218 26.229420 61.960190 0.802739 0.593715 -0.055792 
38.199490 26.230829 61.889370 0.595778 0.767557 0.236442 
38.230190 26.240650 61.831772 0.643688 0.736696 0.207232 
38.223728 26.220461 61.726898 0.556892 0.658811 0.505806 
38.282471 26.252930 61.704941 0.507537 0.637716 0.579418 
38.304630 26.255850 61.636429 0.620810 0.686170 0.379165 
38.331509 26.262581 61.573910 0.621660 0.630599 0.464633 
38.371429 26.279831 61.527981 0.503206 0.583684 0.637257 
38.410980 26.296801 61.481590 0.777512 0.514029 0.362284 
38.416050 26.285891 61.391190 0.339799 0.749188 0.568554 
38.497681 26.336880 61.398499 0.126043 0.743322 0.656951 
38.391171 26.220690 61.068520 0.913018 0.372014 -0.167346 
38.382179 26.198370 60.959930 0.940002 0.280114 0.194761 
38.411560 26.207081 60.900372 0.991675 -0.009267 0.128429 
38.406811 26.188181 60.797112 0.852582 0.126977 0.506932 
38.452950 26.210449 60.758949 0.475704 0.341192 0.810737 
36.258259 26.260900 70.207329 0.904104 0.426800 0.020899 
36.266739 26.253380 70.125473 0.937345 0.348281 -0.009170 
36.280300 26.249901 70.049667 0.864593 0.495923 0.080863 
36.273819 26.230431 69.949753 0.910586 0.408273 0.064388 
36.292900 26.231340 69.880501 0.871093 0.466598 0.153242 
36.306450 26.227840 69.804588 0.878990 0.476763 0.008584 
36.291908 26.201929 69.694817 0.905004 0.372582 0.205308 
36.325661 26.214531 69.643150 0.714101 0.542596 0.442322 
36.349152 26.218929 69.579086 0.728612 0.422508 0.539084 
36.392231 26.238979 69.538651 0.644619 0.224751 0.730721 
36.430691 26.255329 69.492622 0.932885 0.176493 0.313968 
36.435509 26.244829 69.405998 0.792726 0.343877 0.503323 
36.488609 26.272869 69.377617 0.611604 0.428086 0.665345 
36.510029 26.275620 69.310997 0.775072 0.329788 0.538984 
36.550480 26.293560 69.267357 0.747756 0.474665 0.464279 
36.561001 26.287600 69.187523 0.539129 0.573475 0.616820 
36.621700 26.321711 69.168343 0.849620 0.316139 0.422141 
36.578331 26.272699 69.023247 0.960823 0.249260 -0.121201 
36.567169 26.249390 68.917038 0.905472 0.331924 -0.264476 
36.527302 26.203140 68.775993 0.930412 0.307281 -0.199779 
36.522301 26.184740 68.677109 0.771560 0.617694 0.152148 
36.541401 26.185600 68.607407 0.717295 0.459690 0.523615 
36.589218 26.209400 68.572517 0.749852 0.327954 0.574603 
36.608528 26.210409 68.503036 0.676307 0.276059 0.682935 
36.672089 26.246799 68.487259 0.509173 0.333311 0.793503 
36.699429 26.254230 68.427513 0.736380 0.214625 0.641623 
36.744770 26.276051 68.389618 0.770397 0.188311 0.609120 
36.772701 26.283951 68.330566 0.886643 0.417802 0.198258 
36.772598 26.269430 68.237381 0.848387 0.517983 -0.109242 
36.769001 26.252100 68.139877 0.775083 0.616988 -0.136280 
36.772251 26.240240 68.050667 0.450388 0.892827 -0.003277 
36.781620 26.233271 67.968872 0.687042 0.704470 -0.178032 
36.756672 26.198830 67.845192 0.733829 0.619005 -0.279872 
36.738461 26.169769 67.729637 0.747170 0.664522 -0.012174 
36.760040 26.172550 67.662598 0.824890 0.564701 -0.025886 
36.752960 26.152390 67.560539 0.630372 0.770138 0.097563 
36.777328 26.157391 67.496841 0.573916 0.695533 0.432267 
36.814091 26.172310 67.448273 0.223482 0.630885 0.742993 
36.874649 26.206301 67.428787 0.338847 0.734388 0.588096 
36.890030 26.204090 67.354057 0.504875 0.732012 0.457450 
36.937840 26.227871 67.319023 0.503836 0.737299 0.450044 
36.942558 26.217110 67.231171 0.596280 0.553707 0.581257 
37.006901 26.254129 67.216377 0.662235 0.509250 0.549644 
37.013729 26.245060 67.131073 0.935610 0.345829 0.070963 
37.022202 26.237310 67.047737 0.958387 0.272296 -0.085723 
36.980919 26.189671 66.903313 0.866119 0.382598 -0.321646 
36.953300 26.152969 66.775558 0.893138 0.343874 -0.289925 
36.919510 26.111309 66.640129 0.833321 0.419427 0.360079 
36.963100 26.131670 66.599731 0.714685 0.385530 0.583603 
36.991650 26.139980 66.540848 0.628632 0.272518 0.728393 
37.053310 26.174829 66.522682 0.478643 0.142961 0.866293 
37.092339 26.191540 66.476692 0.744805 0.294542 0.598758 
37.129799 26.206980 66.428749 0.527738 0.335156 0.780489 
37.180679 26.233200 66.397362 0.801597 0.126816 0.584261 
37.202370 26.236000 66.329987 0.679115 0.238936 0.694055 
37.247070 26.257259 66.290977 0.698124 0.385630 0.603252 
37.273640 26.263960 66.229584 0.808073 0.451620 0.378229 
37.299438 26.270050 66.167229 0.896749 0.421760 0.134011 
37.301491 26.257071 66.075508 0.891938 0.422978 -0.159803 
37.282478 26.227171 65.957710 0.909179 0.299313 -0.289492 
37.248989 26.185631 65.821922 0.854274 0.490082 -0.173307 
37.251480 26.172979 65.730568 0.702618 0.710284 -0.042718 
37.254700 26.160900 65.640068 0.651161 0.658251 0.377750 
37.301830 26.184090 65.603920 0.447974 0.573940 0.685501 
37.338840 26.199150 65.555229 0.409341 0.518432 0.750778 
37.385719 26.222130 65.518768 0.417577 0.241629 0.875925 
37.441139 26.251970 65.492897 0.633312 0.215408 0.743313 
37.466999 26.258070 65.430367 0.666403 0.322984 0.672004 
37.520500 26.286381 65.402168 0.702639 0.482376 0.523079 
37.539989 26.287359 65.331703 0.819164 0.570949 -0.054665 
37.506210 26.245489 65.194977 0.873906 0.403663 -0.270822 
37.496849 26.223270 65.088570 0.790767 0.587519 -0.171782 
37.476059 26.191830 64.967850 0.802316 0.579687 -0.142309 
37.474072 26.175501 64.870468 0.610569 0.587206 0.531409 
37.533871 26.208860 64.849983 0.734197 0.422836 0.531191 
37.538422 26.197781 64.760674 0.727128 0.420741 0.542460 
37.585159 26.220631 64.723930 0.363521 0.343760 0.865842 
37.648190 26.256590 64.707497 0.552987 0.384955 0.738929 
37.672131 26.261110 64.642326 0.612016 0.460909 0.642650 
37.718040 26.283300 64.604561 0.616161 0.610140 0.498071 
37.736950 26.283751 64.533073 0.763976 0.535839 0.359467 
37.775589 26.300091 64.486214 0.652690 0.612082 0.446489 
37.788811 26.295959 64.407539 0.850906 0.488430 0.193380 
37.805130 26.294319 64.332733 0.793827 0.560891 0.235035 
37.825260 26.295740 64.262657 0.927878 0.371611 0.030791 
37.817848 26.274990 64.158073 0.952717 0.205974 -0.223392 
37.784431 26.233271 64.020828 0.915249 0.267347 -0.301404 
37.685261 26.123739 63.705502 0.541240 0.837136 0.079142 
37.709240 26.128220 63.639969 0.610908 0.777953 0.146905 
37.725491 26.126480 63.564732 0.470397 0.634393 0.613410 
37.784771 26.159410 63.543522 0.231764 0.302471 0.924552 
37.842838 26.191360 63.520809 0.452970 0.434941 0.778232 
37.872269 26.200230 63.462101 0.377612 0.515957 0.768893 
37.957642 26.254200 63.473751 0.202924 0.711597 0.672646 
37.967049 26.246929 63.389851 0.481974 0.797293 0.363353 
38.013161 26.269251 63.352131 0.726676 0.684932 0.053017 
37.972511 26.221590 63.205090 0.927001 0.360423 -0.103755 
37.981201 26.213720 63.120159 0.896421 0.442405 -0.026589 
37.983589 26.200760 63.027222 0.784785 0.600722 0.152462 
38.010571 26.207630 62.965271 0.820999 0.479727 0.309554 
38.031330 26.209480 62.895458 0.838617 0.472150 0.271654 
38.053291 26.212290 62.827122 0.811893 0.496136 0.307699 
38.066010 26.207640 62.747089 0.712813 0.539452 0.448207 
38.108780 26.227240 62.705021 0.484924 0.409848 0.772576 
38.160858 26.254360 62.674728 0.713348 0.216398 0.666563 
38.186260 26.259939 62.610680 0.888198 0.194627 0.416202 
38.220749 26.272869 62.558140 0.868852 0.291106 0.400442 
38.224442 26.260900 62.466541 0.964790 0.253962 0.068439 
38.242481 26.260521 62.393089 0.905302 0.423913 0.026946 
38.227859 26.233761 62.278179 0.814676 0.538314 -0.215688 
38.212601 26.206470 62.162399 0.730549 0.682586 -0.019369 
38.236031 26.210421 62.095661 0.693474 0.720473 0.003568 
38.225960 26.187309 61.986351 0.724433 0.682470 -0.097120 
38.228470 26.174351 61.892960 0.727778 0.635397 0.258090 
38.263470 26.187651 61.840832 0.765790 0.586278 0.264280 
38.278919 26.185141 61.763828 0.575597 0.682616 0.450249 
38.320122 26.203440 61.719559 0.632338 0.570233 0.524388 
38.345791 26.209190 61.655521 0.563838 0.702568 0.434149 
38.382629 26.223961 61.605690 0.393243 0.828152 0.399406 
38.401131 26.223900 61.532471 0.480826 0.733685 0.480117 
38.450218 26.248581 61.498249 0.191976 0.807846 0.557253 
38.496761 26.271200 61.460770 0.199638 0.879793 0.431405 
38.513458 26.269680 61.385208 0.876393 0.466818 -0.118389 
38.474419 26.223049 61.238411 0.812732 0.483331 -0.325357 
