74.565437 25.405470 75.345016 0.611907 0.533155 0.584222 
74.530952 25.391790 75.388397 0.575146 0.528980 0.624010 
74.599457 25.418659 75.300903 0.656844 0.585889 0.474647 
74.624123 25.421801 75.242188 0.666131 0.404316 0.626736 
74.665787 25.443171 75.209976 0.770726 0.263353 0.580195 
74.682121 25.437370 75.138229 0.728045 0.166291 0.665054 
74.736023 25.471880 75.125122 0.013384 0.181575 0.983286 
74.793930 25.510700 75.118309 0.658616 0.222998 0.718677 
74.815964 25.511000 75.055428 0.699560 0.099139 0.707663 
74.857140 25.531860 75.022476 0.882016 0.289740 0.371616 
74.861427 25.513100 74.931793 0.642284 0.765071 -0.046232 
73.366173 23.859270 72.393127 0.694396 0.671036 0.259857 
73.343353 23.858459 72.456200 0.694396 0.671036 0.259857 
73.330963 23.901939 72.377029 0.694396 0.671036 0.259857 
74.887352 25.423849 74.484451 0.165484 0.753634 0.636122 
74.929817 25.446060 74.453377 0.127742 0.748873 0.650285 
74.971741 25.467680 74.421463 0.381385 0.666341 0.640731 
74.997513 25.471920 74.364143 0.747549 0.512619 0.422366 
75.019402 25.471991 74.300713 0.324862 0.592669 0.737026 
75.078491 25.512091 74.295807 0.158638 0.386323 0.908619 
75.124161 25.537760 74.269814 0.780531 0.299392 0.548759 
75.146408 25.538191 74.206902 0.449359 0.804561 0.388276 
75.178879 25.549641 74.160088 0.503061 0.795814 0.337061 
75.191597 25.539820 74.082123 0.520876 0.757247 0.394037 
75.239769 25.568159 74.060043 0.198676 0.903002 0.380941 
75.261414 25.567921 73.996094 0.726937 0.685948 0.032221 
75.212898 25.571760 73.860291 0.746611 0.616789 -0.249286 
69.673927 23.174641 80.593422 0.781569 0.614605 -0.106820 
69.678993 23.157640 80.507736 0.737582 0.674306 -0.035845 
69.719177 23.065660 80.006897 0.829049 0.070565 0.554706 
69.751404 23.077049 79.960411 0.464690 0.237671 0.852980 
69.808319 23.114349 79.949913 0.478072 0.310514 0.821601 
69.841530 23.126780 79.904877 0.564459 0.385409 0.729963 
69.867058 23.131140 79.848633 0.462720 0.433262 0.773417 
69.926262 23.170851 79.841492 0.266588 0.440386 0.857316 
69.970490 23.194839 79.812553 0.724500 0.551029 0.414087 
69.967087 23.168840 79.714027 0.781868 0.622593 -0.032581 
71.522186 24.734831 81.708328 0.376838 0.265023 0.887556 
71.553963 24.746019 81.662277 0.294125 0.118901 0.948342 
71.620827 24.794069 81.667633 -0.336118 0.243427 0.909818 
71.690361 24.844931 81.676933 -0.262995 0.374234 0.889259 
71.748413 24.883739 81.669449 -0.034048 0.477820 0.877798 
71.803978 24.919941 81.658340 0.369768 0.638006 0.675441 
71.823029 24.917749 81.593674 0.641438 0.704870 0.302848 
71.852531 24.926559 81.544327 0.529589 0.796980 0.290444 
71.869713 24.922390 81.476860 0.865551 0.500461 0.019007 
71.879784 24.910730 81.398903 0.564506 0.809011 0.163810 
71.899513 24.909241 81.335129 0.531755 0.834639 0.143578 
71.926849 24.915739 81.282516 0.088733 0.973113 0.212548 
70.387421 23.273010 78.922577 0.402420 0.913633 0.057727 
70.401451 23.265200 78.849083 0.018394 0.943569 0.330666 
70.474518 23.319530 78.862556 -0.228197 0.840703 0.491064 
72.007721 24.867050 80.843719 0.756144 0.650957 -0.067093 
72.013077 24.850340 80.758453 0.598668 0.800721 -0.021049 
72.017883 24.833031 80.672310 0.761929 0.635302 -0.125919 
72.013184 24.805700 80.572067 0.592215 0.603562 0.533848 
72.065422 24.838381 80.556030 -0.071973 0.478117 0.875342 
72.136169 24.890591 80.567413 0.079220 0.516364 0.852697 
72.177338 24.911619 80.535027 0.032102 0.576959 0.816142 
72.218231 24.932350 80.502243 0.251696 0.610873 0.750655 
72.262413 24.956539 80.474327 0.257492 0.790024 0.556381 
72.289421 24.962641 80.420967 0.398975 0.645135 0.651628 
72.336906 24.990330 80.397980 0.435370 0.560122 0.704781 
72.375420 25.008551 80.361671 0.649997 0.669439 0.359660 
72.377220 24.965549 80.177208 0.743971 0.539929 0.393680 
72.351433 24.960779 80.232483 0.879982 0.454751 0.137234 
70.819344 23.274740 77.670631 0.266440 0.467092 0.843110 
70.872833 23.308470 77.655281 0.366189 0.677517 0.637869 
70.882103 23.295450 77.574043 0.566384 0.583082 0.582430 
70.931122 23.324450 77.552017 0.698751 0.521001 0.490210 
70.963707 23.336081 77.505524 0.717982 0.567243 0.403406 
70.973877 23.324011 77.425537 0.588493 0.456884 0.667033 
71.032822 23.363489 77.418350 0.414011 0.668012 0.618349 
71.034187 23.342100 77.325180 0.575674 0.392506 0.717313 
71.102440 23.391439 77.331917 0.559919 0.331291 0.759432 
71.128304 23.395929 77.275307 0.299311 0.872238 0.386800 
71.169800 23.416990 77.242104 0.147929 0.871789 0.467013 
72.707314 24.976521 79.260887 0.216380 0.892486 0.395787 
72.740181 24.988701 79.215889 -0.044753 0.906321 0.420213 
72.796623 25.025850 79.206261 -0.346288 0.773466 0.530882 
71.253571 23.368231 76.794792 0.566794 0.823751 0.013353 
71.267303 23.359819 76.719757 0.329181 0.886058 0.326407 
71.304001 23.375750 76.679207 0.064354 0.651820 0.755638 
71.358704 23.410770 76.665749 0.166962 0.721841 0.671617 
71.388344 23.419210 76.614578 0.266997 0.652513 0.709182 
71.444443 23.455709 76.603241 0.198535 0.573959 0.794452 
71.482437 23.473030 76.564682 0.127793 0.771270 0.623548 
71.522041 23.492029 76.528526 0.350732 0.918674 0.181729 
71.523193 23.470240 76.434380 0.561737 0.804637 -0.192382 
73.094757 25.069719 78.520477 0.661559 0.684915 0.305338 
73.118050 25.071699 78.460854 0.536950 0.758849 0.368555 
71.625153 23.463261 76.108269 0.624562 0.606260 0.492312 
71.651382 23.468050 76.051804 0.472409 0.507490 0.720614 
71.696938 23.493361 76.024559 0.531549 0.582288 0.615139 
71.718697 23.493389 75.961288 0.502812 0.646431 0.573853 
71.759598 23.513750 75.926987 0.536182 0.504033 0.677096 
71.792023 23.525101 75.879852 0.525300 0.407961 0.746744 
71.843323 23.556530 75.861359 0.637967 0.461168 0.616703 
71.854187 23.544960 75.781487 0.692956 0.678270 0.244463 
71.887543 23.557289 75.735733 0.667888 0.739236 0.086350 
71.871262 23.516821 75.614540 0.537430 0.801640 -0.261805 
73.496788 25.154760 77.703781 0.997503 0.060467 -0.036478 
73.487671 25.122141 77.594452 0.656789 0.558312 0.506869 
73.536247 25.150961 77.573029 0.100516 0.544088 0.832986 
73.584930 25.179890 77.551773 0.385896 0.375967 0.842456 
73.618690 25.192921 77.507751 0.845466 0.258994 0.467021 
73.657066 25.210871 77.470779 0.443992 0.593634 0.671171 
73.689240 25.222210 77.424332 0.702216 0.623438 0.343830 
73.695251 25.205660 77.337883 0.376204 0.566060 0.733517 
73.758720 25.250360 77.339256 0.523161 0.590605 0.614401 
73.769073 25.238411 77.259392 0.265721 0.838499 0.475723 
73.828537 25.278870 77.254707 0.410441 0.849146 0.332399 
73.820068 25.246830 77.145950 0.422635 0.906297 -0.002225 
73.861214 25.244699 77.017288 0.690494 0.722337 -0.038044 
73.849800 25.255541 77.095680 0.380161 0.924896 -0.006783 
73.827209 25.287331 77.002571 0.777077 0.628861 0.026170 
72.342331 23.600241 74.590347 -0.322012 0.809321 0.491231 
72.393837 23.631889 74.572182 0.054635 0.956525 0.286488 
72.421608 23.638180 74.517563 0.353200 0.866377 0.353045 
72.455177 23.650660 74.471817 0.647384 0.693034 0.317170 
72.461906 23.634480 74.384811 0.611520 0.541471 0.576934 
72.514183 23.666929 74.367813 0.004973 0.386414 0.922312 
72.568443 23.701521 74.353897 0.233283 0.308501 0.922175 
72.618973 23.732130 74.334290 0.075401 0.420417 0.904192 
72.680817 23.774851 74.332153 -0.051192 0.543363 0.837936 
72.648018 23.716360 74.184052 0.508802 0.825682 -0.243657 
72.632690 23.676531 74.062813 0.404191 0.900701 -0.159275 
74.182068 25.240971 76.067780 0.743127 0.598850 0.298564 
74.206497 25.243919 76.008957 0.531048 0.760518 0.373631 
74.242607 25.259380 75.968208 0.230121 0.934467 0.271690 
74.249512 25.243540 75.882202 0.702696 0.708742 -0.062480 
72.766472 23.631750 73.487007 0.592207 0.526238 0.610217 
72.798180 23.642170 73.438110 0.259749 0.719173 0.644454 
72.852707 23.677040 73.424606 -0.101350 0.907709 0.407177 
72.881401 23.684219 73.371010 0.512368 0.832718 0.209905 
72.896362 23.676680 73.296082 0.399379 0.683349 0.611171 
72.954033 23.714920 73.287483 -0.054431 0.714234 0.697787 
72.989357 23.729219 73.244186 0.250826 0.860729 0.442980 
74.592392 25.355061 75.348747 0.732775 0.315103 0.603118 
74.624733 25.366440 75.302010 0.827825 0.358869 0.431184 
74.640091 25.359579 75.228760 0.740220 0.288909 0.607129 
74.686974 25.386560 75.204689 0.743333 0.309734 0.592892 
74.700737 25.377979 75.128906 0.426614 0.462400 0.777294 
74.772240 25.431410 75.143311 0.521322 0.129098 0.843539 
74.775291 25.411310 75.050751 0.662068 0.243267 0.708863 
74.833221 25.450159 75.043983 0.178871 0.268161 0.946623 
74.876549 25.473330 75.014374 0.803656 0.385202 0.453603 
74.893349 25.467979 74.943237 0.844900 0.507509 0.169050 
74.917442 25.376650 74.492989 0.051484 0.806064 0.589585 
74.958382 25.397230 74.459534 0.177884 0.815078 0.551367 
74.993347 25.411369 74.416679 0.299445 0.782789 0.545503 
75.036133 25.433910 74.386101 -0.024477 0.837823 0.545394 
75.089912 25.468321 74.372864 0.208600 0.821060 0.531362 
75.110558 25.467030 74.307457 0.370943 0.769409 0.520011 
75.150063 25.486059 74.271759 0.548132 0.539198 0.639388 
75.196457 25.512510 74.246910 0.451935 0.563529 0.691513 
75.225380 25.520130 74.194519 0.414713 0.780863 0.467189 
75.259720 25.533590 74.150658 0.460360 0.795430 0.394157 
75.284760 25.537020 74.092110 0.691422 0.695129 0.196804 
75.287216 25.516100 73.997879 0.589688 0.793833 -0.148651 
75.339630 25.501820 73.786034 0.456392 0.889235 0.031092 
75.338638 25.524361 73.882736 0.431392 0.899531 0.068890 
75.303093 25.542120 73.767319 0.764897 0.629025 -0.138779 
69.728683 22.996889 79.985474 0.310684 0.293000 0.904227 
69.779877 23.028191 79.966614 0.671033 0.071257 0.737995 
69.799042 23.025881 79.901077 0.465309 0.043723 0.884068 
69.874039 23.082161 79.916939 0.145607 0.394727 0.907187 
69.913780 23.101440 79.881416 0.132015 0.721731 0.679468 
69.945763 23.112570 79.834572 0.773518 0.478075 0.416071 
69.963753 23.109011 79.767303 0.801071 0.515159 0.304790 
69.994072 23.118401 79.718033 0.671125 0.720046 0.176425 
71.595222 24.711540 81.687599 -0.482925 0.363582 0.796613 
71.683640 24.782270 81.724541 -0.482189 0.493157 0.724078 
71.746117 24.825750 81.723541 0.053765 0.522198 0.851128 
71.790298 24.849991 81.695740 0.173494 0.467365 0.866873 
71.834251 24.873989 81.667610 0.422876 0.584116 0.692810 
71.868568 24.887850 81.625351 0.331536 0.846480 0.416600 
71.891899 24.890150 81.566948 0.735618 0.674245 0.065266 
71.892776 24.868830 81.475540 0.550938 0.809396 0.203336 
71.929947 24.885679 81.437424 0.389341 0.876389 0.283470 
71.950760 24.885309 81.375237 0.252031 0.919061 0.302997 
71.987320 24.901520 81.336212 0.396714 0.861510 0.316890 
70.437080 23.246361 78.959900 -0.170055 0.961008 0.218047 
70.488518 23.277941 78.941544 0.038811 0.982880 0.180113 
70.503548 23.271160 78.869507 0.724482 0.683808 0.086793 
72.030533 24.813061 80.841888 0.467315 0.872168 0.144708 
72.057152 24.818760 80.788048 0.563743 0.822096 0.079697 
72.069817 24.809719 80.713531 0.720223 0.684761 -0.111275 
72.063057 24.780199 80.610252 0.099812 0.950260 0.295031 
72.123497 24.821550 80.606361 0.320986 0.616437 0.719009 
72.153954 24.831261 80.558098 0.216908 0.347685 0.912176 
72.227501 24.886459 80.573692 0.081362 0.448125 0.890261 
72.272362 24.911390 80.546799 0.075461 0.547595 0.833334 
72.320923 24.940220 80.525414 0.441737 0.711311 0.546722 
72.332207 24.929701 80.448730 0.438973 0.802279 0.404537 
72.369759 24.946911 80.411003 0.548771 0.682256 0.483092 
72.388023 24.943741 80.344597 0.900501 0.434593 0.015066 
70.870918 23.249981 77.711029 0.160430 0.190319 0.968525 
70.924301 23.283600 77.695534 0.338538 0.517832 0.785647 
70.958549 23.297001 77.651543 0.418230 0.842147 0.340400 
70.959900 23.275579 77.558456 0.636102 0.767847 0.076062 
70.975098 23.268820 77.486023 0.786072 0.529227 0.319390 
71.015373 23.288561 77.450943 0.351858 0.384068 0.853632 
71.064621 23.317810 77.429298 0.745556 0.334162 0.576613 
71.077728 23.308821 77.353653 0.298241 0.673496 0.676354 
71.128197 23.339359 77.333832 0.481840 0.437790 0.759059 
71.165916 23.356421 77.294983 0.597466 0.491619 0.633518 
71.193604 23.362829 77.241074 0.794066 0.389310 0.466795 
72.758614 24.952459 79.301529 -0.022694 0.891263 0.452919 
72.799606 24.973261 79.268753 0.134635 0.731660 0.668242 
72.846977 25.000830 79.245552 0.136397 0.505038 0.852251 
71.294434 23.332050 76.819321 0.424422 0.902641 0.071455 
71.314453 23.330299 76.753738 0.083189 0.953092 0.291026 
71.358940 23.354500 76.724907 0.021969 0.772386 0.634773 
71.412956 23.388800 76.710442 0.435498 0.616208 0.656224 
71.432297 23.386320 76.643791 0.128521 0.812925 0.568010 
71.482117 23.416180 76.623016 -0.114553 0.742430 0.660057 
71.536690 23.451080 76.609444 -0.240057 0.771041 0.589803 
71.586014 23.480419 76.587959 0.237037 0.950120 0.202694 
71.580643 23.451691 76.483994 0.524671 0.816296 -0.241623 
73.129433 25.027969 78.536201 0.259581 0.851754 0.455118 
73.173210 25.051710 78.507553 -0.125654 0.849678 0.512112 
71.647141 23.406981 76.104317 0.467693 0.676591 0.568760 
71.684303 23.423370 76.064369 0.273662 0.575050 0.770991 
71.738403 23.457781 76.050087 0.497086 0.516092 0.697534 
71.764687 23.462610 75.993683 0.647087 0.523619 0.554168 
71.802513 23.479700 75.954727 0.366300 0.721987 0.586992 
71.826576 23.482170 75.894943 0.503044 0.645215 0.575016 
71.868660 23.503799 75.862450 0.455593 0.676870 0.578172 
71.897957 23.511810 75.810547 0.436093 0.876665 0.203178 
71.906708 23.497959 75.727432 0.510828 0.859648 -0.007703 
71.934563 23.504431 75.673286 0.174853 0.984276 0.025039 
71.863876 23.485790 75.506783 0.425844 0.861286 -0.277208 
73.490303 25.069059 77.656807 0.662752 0.423639 0.617487 
73.500839 25.103220 77.768272 0.995938 -0.028560 -0.085388 
73.541107 25.100269 77.638786 0.273211 0.677002 0.683392 
73.566383 25.104250 77.581833 0.377105 0.598671 0.706672 
73.617310 25.135590 77.564011 0.619295 0.493942 0.610323 
73.624634 25.120420 77.479622 0.555457 0.537279 0.634664 
73.676537 25.152809 77.463333 0.547319 0.463312 0.696982 
73.702271 25.157270 77.407013 0.403663 0.745117 0.530902 
73.751404 25.186689 77.386459 0.062594 0.740934 0.668655 
73.794647 25.209841 77.356941 0.118745 0.744681 0.656772 
73.837639 25.232710 77.327042 0.155693 0.908048 0.388856 
73.855591 25.228870 77.258797 0.597138 0.778049 0.195105 
73.890091 25.242680 77.215874 0.595719 0.773681 0.215723 
73.903587 25.234070 77.140747 0.633749 0.770208 0.071703 
73.905434 25.212980 77.047684 0.657970 0.737131 -0.153991 
72.433838 23.617970 74.692848 0.105253 0.991266 0.079459 
72.440201 23.601400 74.605377 0.596995 0.802109 -0.014762 
72.451103 23.589649 74.524834 0.533607 0.803467 0.264015 
72.482048 23.599340 74.475082 0.770274 0.616357 0.163652 
72.495689 23.590521 74.398682 0.352582 0.711415 0.607927 
72.551788 23.627081 74.387604 0.351692 0.391577 0.850282 
72.587341 23.641670 74.344887 0.533833 0.175536 0.827170 
72.635109 23.669340 74.321007 0.519038 -0.030894 0.854192 
72.677544 23.691290 74.288918 0.691898 0.020324 0.721709 
72.714912 23.707840 74.249023 0.719080 0.618773 0.316299 
72.707024 23.675940 74.139282 0.388026 0.918137 0.080382 
72.655182 23.677130 73.999863 -0.063410 0.997471 0.032094 
72.737396 23.684980 74.088539 0.166896 0.966107 0.196932 
74.204819 25.186140 76.065071 0.773707 0.429677 0.465570 
74.236687 25.197050 76.017754 0.216615 0.718628 0.660796 
74.288887 25.229731 76.001907 0.079816 0.968150 0.237307 
74.299026 25.217360 75.920937 0.466507 0.881227 -0.076220 
72.802711 23.590281 73.504646 -0.216742 0.797791 0.562629 
72.868568 23.637310 73.508728 -0.049135 0.700288 0.712168 
72.912697 23.661051 73.479134 0.528361 0.703212 0.475739 
72.924026 23.649611 73.398613 0.527511 0.817650 0.230611 
72.957169 23.661560 73.351921 -0.206092 0.843464 0.496080 
73.015160 23.700171 73.343857 0.018965 0.861690 0.507080 
73.048027 23.711830 73.296761 0.684816 0.703863 0.188692 
73.022217 23.740860 73.197037 0.629154 0.774748 0.062695 
73.048576 23.688789 73.199364 0.911699 0.408736 0.041707 
74.613800 25.298691 75.343826 0.653720 0.332689 0.679683 
74.650490 25.314730 75.303864 0.817918 0.366960 0.443115 
74.667686 25.309839 75.233490 0.557897 0.517882 0.648498 
74.713730 25.335920 75.208099 0.493996 0.569500 0.656992 
74.745323 25.346470 75.160141 0.373675 0.592537 0.713629 
74.784393 25.365070 75.123878 0.556820 0.588910 0.585779 
74.815666 25.375290 75.075439 -0.037013 0.773566 0.632634 
74.874542 25.415171 75.070137 0.489904 0.575187 0.655099 
74.899132 25.418200 75.011238 0.833333 0.401340 0.380108 
74.920990 25.418280 74.948013 0.839374 0.484741 0.245921 
74.907677 25.459980 74.868233 0.759748 0.619628 0.197090 
74.944130 25.419729 74.886780 0.831961 0.491934 0.256598 
75.013420 25.400419 74.605026 0.392041 0.914677 0.098336 
75.031990 25.396910 74.536469 0.312567 0.936388 0.159622 
75.061256 25.404930 74.484703 -0.057785 0.974723 0.215814 
75.086601 25.408689 74.426720 0.108216 0.937833 0.329786 
75.123466 25.424891 74.386887 0.165245 0.826503 0.538133 
75.173279 25.455021 74.367401 0.482735 0.781861 0.394538 
75.172318 25.430429 74.267960 0.527521 0.702282 0.478040 
75.214523 25.452370 74.236504 0.574977 0.402324 0.712417 
75.261391 25.479330 74.212402 0.592792 0.417520 0.688676 
75.281754 25.477711 74.146477 0.623585 0.606556 0.493185 
75.318123 25.493361 74.105827 0.392853 0.814547 0.426824 
75.351067 25.505301 74.059738 0.128317 0.984311 0.121106 
75.282043 25.486919 73.891487 -0.212808 0.965227 0.151820 
75.363167 25.494749 73.980713 0.221812 0.974230 -0.040925 
75.376709 25.485741 73.903893 0.347358 0.937731 0.001827 
75.398880 25.486040 73.840698 -0.005599 0.982571 0.185802 
75.370453 25.511450 73.736504 -0.080200 0.963142 0.256760 
75.442070 25.509029 73.810760 0.079769 0.945560 0.315522 
69.712936 23.036039 80.486847 0.916763 0.328745 -0.226874 
69.727699 23.073870 80.601318 0.679478 0.666037 -0.307740 
69.709091 23.110600 80.516327 0.979579 0.115570 -0.164525 
69.764877 22.956120 80.002876 0.847125 0.101864 0.521539 
69.783127 22.952841 79.936043 0.474835 0.411612 0.777886 
69.838783 22.988831 79.923683 -0.131082 0.439571 0.888592 
69.902817 23.033630 79.923569 0.008675 0.183429 0.982995 
69.967613 23.079229 79.924606 0.445907 0.475250 0.758488 
69.985748 23.075821 79.857567 0.793781 0.536445 0.286598 
70.009918 23.078739 79.799316 0.452457 0.806051 0.381529 
70.037498 23.085251 79.746048 0.632597 0.773731 0.034071 
69.982918 23.084200 79.608078 0.679000 0.681170 -0.273800 
70.027519 23.052259 79.637833 0.687982 0.674056 -0.268942 
71.665543 24.707649 81.755493 -0.458023 0.334714 0.823518 
71.736580 24.760139 81.767014 0.195150 0.348483 0.916775 
71.769096 24.772110 81.722107 0.299782 0.416044 0.858509 
71.822922 24.806499 81.708450 0.270149 0.363822 0.891433 
71.868736 24.832470 81.683067 0.113588 0.526891 0.842308 
71.915627 24.859560 81.659264 0.644340 0.609132 0.462368 
71.921356 24.843330 81.575020 0.820529 0.541085 0.184280 
71.950417 24.851650 81.525009 0.644255 0.700742 0.306425 
71.965553 24.845301 81.454514 0.749332 0.568387 0.339761 
71.998734 24.857950 81.410522 0.565026 0.738165 0.368590 
72.003410 24.840570 81.324577 0.431177 0.861492 0.268176 
70.549347 23.263109 78.995361 0.266003 0.963330 -0.035176 
72.090599 24.798380 80.895119 0.735206 0.676382 -0.044487 
72.093147 24.778669 80.805687 0.782107 0.616939 -0.087720 
72.092377 24.755449 80.711327 0.784054 0.580726 0.219126 
72.139572 24.782829 80.687843 0.479781 0.693822 0.537048 
72.137840 24.758570 80.591957 0.479869 0.620156 0.620590 
72.208847 24.811110 80.603767 -0.202778 0.583739 0.786212 
72.243973 24.825750 80.562424 0.209062 0.567612 0.796310 
72.298859 24.861271 80.550407 -0.058165 0.587554 0.807092 
72.345917 24.888531 80.526787 0.151242 0.825603 0.543604 
72.378227 24.900209 80.481300 0.533269 0.758882 0.373795 
72.411987 24.913420 80.437973 0.635689 0.631604 0.443820 
72.431374 24.911421 80.373253 0.622984 0.776584 0.093851 
72.415733 24.827360 80.069092 0.821810 0.468903 -0.323664 
72.437424 24.872829 80.195053 0.758288 0.614959 -0.216391 
72.391808 24.880301 80.069382 0.870780 0.395141 -0.292584 
70.872070 23.171900 77.676338 -0.136692 0.198075 0.970609 
70.939774 23.220680 77.682152 -0.012687 0.329832 0.943954 
70.995338 23.256620 77.669930 0.563491 0.468132 0.680683 
71.028412 23.268770 77.624184 0.659926 0.688886 0.299888 
71.006958 23.223190 77.497040 0.560965 0.819431 0.117692 
71.033340 23.228239 77.441238 0.523765 0.642323 0.559545 
71.071907 23.246180 77.403633 0.356381 0.577757 0.734296 
71.126427 23.281019 77.389847 -0.064035 0.811882 0.580299 
71.153893 23.287220 77.335663 0.535509 0.680926 0.499569 
71.191673 23.304319 77.296867 0.678260 0.497189 0.541079 
71.220657 23.312111 77.244919 0.640536 0.535592 0.550322 
72.810387 24.928930 79.342888 0.730968 0.633870 0.252775 
72.825150 24.921921 79.270767 0.701362 0.391303 0.595796 
72.871422 24.948320 79.245911 0.370407 0.203991 0.906193 
71.349258 23.310711 76.864830 0.465808 0.728627 0.502121 
71.392677 23.333790 76.834442 0.268679 0.897989 0.348463 
71.387657 23.305460 76.731209 0.437292 0.793086 0.424018 
71.432877 23.330429 76.703491 0.030381 0.684993 0.727915 
71.502998 23.381849 76.713287 -0.182766 0.797637 0.574779 
71.538803 23.396830 76.671432 0.102656 0.748878 0.654708 
71.592041 23.430340 76.655869 0.112875 0.582005 0.805313 
71.631813 23.449539 76.620010 0.566822 0.753789 0.332437 
71.631653 23.426319 76.523911 0.533311 0.836488 -0.125967 
71.693810 23.376940 76.137711 0.220472 0.944694 0.242786 
71.719109 23.380711 76.079826 0.408203 0.773199 0.485318 
71.754997 23.395760 76.037956 0.510554 0.708530 0.487155 
71.779289 23.398451 75.978508 0.360189 0.620385 0.696697 
71.847878 23.448290 75.986214 0.352580 0.667558 0.655785 
71.863724 23.441990 75.913933 0.396539 0.731072 0.555239 
71.915337 23.473780 75.895927 0.055907 0.732656 0.678299 
71.954727 23.492550 75.859390 0.594359 0.708960 0.379622 
71.981239 23.497589 75.803261 0.696953 0.678103 0.233308 
71.983391 23.476690 75.710083 0.913252 0.406731 -0.023256 
73.524712 25.026920 77.672142 0.290631 0.163289 0.942799 
73.573463 25.055941 77.650993 0.357083 0.459209 0.813400 
73.609154 25.071030 77.609917 0.578417 0.461448 0.672680 
73.645477 25.086809 77.569839 0.634183 0.422044 0.647836 
73.683441 25.104309 77.532227 0.457347 0.635622 0.621948 
73.712082 25.111879 77.480392 0.444612 0.489497 0.750142 
73.772781 25.153650 77.477539 0.469528 0.514597 0.717450 
73.782463 25.140980 77.396713 0.641963 0.303551 0.704088 
73.842232 25.181770 77.392464 0.051564 0.465201 0.883702 
73.883636 25.202959 77.360153 0.642709 0.610095 0.463367 
73.896896 25.194090 77.284721 0.756627 0.644568 0.109763 
73.896294 25.170401 77.188004 0.551152 0.744350 0.377060 
73.943573 25.197849 77.164627 0.300976 0.863880 0.403888 
72.487213 23.571630 74.639603 0.776733 0.569300 0.269413 
72.512878 23.575670 74.581757 0.504311 0.827074 0.248233 
72.513580 23.553011 74.485512 0.619980 0.777372 0.106384 
72.544777 23.562950 74.436127 0.185080 0.879107 0.439223 
72.574532 23.571341 74.384499 0.517448 0.645464 0.561803 
72.615372 23.591591 74.349930 0.281641 0.607172 0.742981 
72.653999 23.609470 74.311958 0.689456 0.384834 0.613640 
72.685577 23.619810 74.263123 0.802988 0.307900 0.510302 
72.708267 23.620630 74.200569 0.756033 0.460429 0.465208 
72.751106 23.643021 74.169083 0.462191 0.710096 0.531172 
72.773407 23.643400 74.105873 0.458179 0.777963 0.429937 
74.313652 25.200310 76.098961 -0.230004 0.938168 0.258724 
74.350983 25.217070 76.060120 -0.005196 0.984789 0.173679 
72.867241 23.579170 73.566177 0.088376 0.944459 0.316522 
72.842117 23.575809 73.625252 0.083256 0.992285 0.091859 
72.897079 23.587589 73.514420 0.560030 0.640767 0.525152 
72.932388 23.601860 73.471123 0.441446 0.735721 0.513654 
72.966400 23.614740 73.425797 0.069430 0.839650 0.538671 
73.023453 23.652361 73.416283 0.036179 0.753703 0.656218 
73.055023 23.662630 73.367188 0.636013 0.728792 0.253672 
73.055656 23.639669 73.269951 0.750382 0.656940 0.073188 
73.080322 23.642500 73.210037 0.605468 0.762753 0.227191 
74.640770 25.248280 75.347572 0.727401 0.398438 0.558691 
74.670311 25.256639 75.296448 0.880862 0.186429 0.435116 
74.706306 25.271931 75.255386 0.553076 0.247983 0.795369 
74.747780 25.293110 75.222878 0.574249 0.376135 0.727159 
74.778664 25.302900 75.173820 0.157014 0.658086 0.736389 
74.834587 25.339630 75.163918 0.081734 0.596805 0.798213 
74.887047 25.372629 75.148613 0.405804 0.665378 0.626575 
74.888138 25.350370 75.052940 0.751890 0.510124 0.417655 
74.929604 25.371540 75.020432 0.533222 0.693086 0.485084 
74.944717 25.364349 74.946640 0.800218 0.588467 0.115575 
74.958351 25.355560 74.870499 0.906503 0.422033 0.011829 
75.053268 25.363791 74.628929 0.719462 0.686198 0.107276 
75.068848 25.357050 74.555656 0.304058 0.762198 0.571492 
75.142860 25.413271 74.574257 0.396325 0.623374 0.674041 
75.148750 25.396080 74.485718 0.454873 0.878930 0.143431 
75.171852 25.397430 74.424217 0.451769 0.847713 0.278007 
75.193764 25.397499 74.360840 0.614344 0.679706 0.400726 
75.240280 25.424089 74.336197 0.557385 0.707807 0.433972 
75.237671 25.397699 74.234108 0.787805 0.322334 0.524847 
75.284012 25.424101 74.209183 0.350745 0.429438 0.832203 
75.326813 25.446680 74.178673 0.492406 0.565532 0.661596 
75.361908 25.460951 74.136009 0.152740 0.656257 0.738916 
75.412292 25.491730 74.117493 0.536844 0.706685 0.460864 
75.418587 25.474911 74.029297 0.590525 0.778214 0.213690 
75.454712 25.490271 73.988228 0.092049 0.961030 0.260670 
75.459648 25.471939 73.897781 0.385980 0.922296 -0.019714 
75.471947 25.461571 73.818962 0.840020 0.539212 0.060142 
69.785339 23.055750 80.649879 0.523228 0.786757 -0.327485 
69.770103 22.882820 79.975197 -0.060773 0.468664 0.881283 
69.844482 22.938499 79.990112 0.309542 0.458695 0.832936 
69.874893 22.947981 79.940987 0.359078 0.329020 0.873389 
69.925400 22.978580 79.921158 0.180173 0.187276 0.965643 
69.976784 23.010099 79.902634 0.643656 0.188324 0.741782 
70.006897 23.019270 79.853073 0.401389 0.617907 0.676076 
70.053047 23.045300 79.826927 0.226711 0.856697 0.463327 
70.075783 23.046690 79.766548 0.759517 0.650424 0.009097 
71.701317 24.667450 81.772797 -0.211316 0.398617 0.892440 
71.755653 24.702379 81.759857 0.007610 0.473939 0.880525 
71.815567 24.743200 81.755127 0.299754 0.512523 0.804654 
71.845047 24.751970 81.705772 0.252900 0.458351 0.852030 
71.909843 24.797930 81.708237 0.441863 0.486207 0.753897 
71.923790 24.790331 81.636070 0.912501 0.338614 0.229526 
71.948257 24.793810 81.579330 0.621489 0.694078 0.363329 
71.967392 24.791670 81.514717 0.703321 0.681636 0.201772 
71.989708 24.792870 81.454773 0.836658 0.288858 0.465365 
72.035522 24.818840 81.429382 0.511316 0.396139 0.762647 
72.073959 24.837040 81.393150 -0.023072 0.788741 0.614292 
72.061211 24.879169 81.316841 -0.222074 0.837410 0.499427 
72.107658 24.850229 81.349930 0.628451 0.728335 0.273087 
70.572609 23.186010 78.899597 0.379426 0.925188 -0.007918 
70.566833 23.202591 78.985283 0.843598 0.534945 -0.046654 
70.505096 23.193810 78.835907 0.266118 0.949573 -0.165810 
72.119003 24.750299 80.901550 0.709884 0.703250 -0.038791 
72.130127 24.739639 80.824821 0.780853 0.608617 -0.140905 
72.113762 24.699909 80.707352 0.648566 0.612488 0.451909 
72.160027 24.726330 80.682510 0.453167 0.673631 0.583833 
72.189972 24.735500 80.633507 -0.149444 0.758305 0.634540 
72.260612 24.787670 80.644791 -0.301984 0.600264 0.740600 
72.316849 24.824631 80.634781 -0.302965 0.752227 0.585121 
72.359917 24.847679 80.605263 0.029066 0.715093 0.698425 
72.419159 24.887831 80.599747 0.546572 0.602044 0.582067 
72.398521 24.843531 80.475693 0.682608 0.630872 0.368845 
72.438370 24.863171 80.441383 0.271119 0.771025 0.576207 
72.474403 24.878771 80.401398 0.392279 0.916535 0.077986 
72.430191 24.887680 80.277924 0.763437 0.632649 -0.130072 
72.465271 24.846600 80.294243 0.760852 0.641725 -0.096400 
72.476891 24.836361 80.217903 0.816778 0.556544 -0.152094 
72.450150 24.785521 80.084412 0.796467 0.511567 -0.322397 
70.938248 23.162621 77.738487 0.267670 0.193420 0.943897 
70.983192 23.187330 77.710442 0.654745 0.180841 0.733898 
70.997040 23.179119 77.636009 0.530046 0.306248 0.790736 
71.049171 23.211439 77.618683 0.737628 0.403957 0.541039 
71.081779 23.223080 77.572212 0.385246 0.847896 0.364223 
71.090157 23.209049 77.489548 0.532238 0.820928 0.206881 
71.126083 23.224199 77.447998 -0.166199 0.723546 0.669970 
71.190666 23.269739 77.449333 0.493327 0.672322 0.551916 
71.198647 23.255260 77.365990 0.779680 0.575023 0.247886 
71.220528 23.255520 77.303413 0.703564 0.497913 0.507032 
71.260750 23.275221 77.268280 0.353422 0.583035 0.731549 
72.837570 24.879351 79.347389 0.963413 0.240935 0.117414 
72.851768 24.871719 79.274399 0.784796 0.385469 0.485292 
71.373871 23.257330 76.864960 0.574709 0.508678 0.641059 
71.367569 23.273649 76.951103 0.859807 0.509511 -0.033624 
71.437263 23.301600 76.864571 0.389394 0.579635 0.715818 
71.462952 23.305861 76.807533 0.033780 0.931169 0.363019 
71.498100 23.320160 76.764717 -0.190929 0.842922 0.503019 
71.549637 23.351870 76.746582 0.099929 0.888529 0.447806 
71.568680 23.349039 76.679482 0.238519 0.789589 0.565383 
71.621239 23.381840 76.662903 0.007592 0.711771 0.702371 
71.665787 23.406130 76.634247 0.402286 0.843911 0.354936 
71.684242 23.402660 76.566223 0.547172 0.833867 0.072588 
71.640137 23.412279 76.440804 0.307628 0.950853 -0.035258 
71.705528 23.402210 76.502449 0.265104 0.948388 0.174014 
71.760368 23.368080 76.201210 0.288730 0.955305 -0.063464 
71.771347 23.356609 76.121674 0.043360 0.975133 0.217339 
71.824883 23.390450 76.106552 0.137674 0.965694 0.220184 
71.832947 23.375870 76.022552 0.102970 0.935256 0.338663 
71.875908 23.398439 75.991402 0.321701 0.844651 0.427871 
71.905312 23.406561 75.939697 0.023498 0.845550 0.533379 
71.956253 23.437630 75.920662 0.131644 0.930989 0.340484 
71.959213 23.417580 75.828781 0.827825 0.408031 0.384989 
71.990829 23.428070 75.780411 0.957780 0.227665 0.175576 
71.992348 23.406460 75.686249 0.787355 0.609818 0.090517 
71.999603 23.470739 75.638229 0.982440 0.027021 0.184614 
72.004539 23.396219 75.608261 0.761758 0.639658 0.102769 
73.541489 24.965969 77.660599 -0.158478 0.412129 0.897237 
73.605133 25.010880 77.662140 0.543548 0.558871 0.626274 
73.622620 25.006550 77.593307 0.751761 0.243972 0.612645 
73.667870 25.031839 77.566833 0.454059 0.330221 0.827517 
73.703957 25.047350 77.526360 0.866203 0.146783 0.477648 
73.730293 25.052429 77.470970 0.606684 0.074577 0.791437 
73.774239 25.076349 77.442520 0.819121 0.041305 0.572131 
73.800987 25.081881 77.387756 0.230309 0.369653 0.900174 
73.871536 25.134211 77.400032 0.295682 0.429339 0.853370 
73.899422 25.140949 77.347000 0.733604 0.460463 0.499799 
73.935577 25.156521 77.306633 0.506993 0.708793 0.490479 
73.968697 25.168871 77.261620 0.268916 0.931163 0.246210 
73.974892 25.152399 77.175278 0.752923 0.650951 -0.096795 
72.493683 23.498510 74.611526 0.141229 0.209583 0.967538 
72.555817 23.541571 74.609749 0.612077 0.474308 0.632767 
72.559723 23.522289 74.518402 0.590512 0.699297 0.402840 
72.604630 23.546909 74.490128 0.436035 0.749031 0.498825 
72.619476 23.539339 74.415573 0.453573 0.746991 0.486082 
72.667809 23.567619 74.392563 0.434022 0.675972 0.595556 
72.685379 23.562969 74.322159 0.797006 0.424235 0.429890 
72.725792 23.582760 74.286942 0.652586 0.504306 0.565515 
72.745537 23.580410 74.219841 0.443042 0.735217 0.513000 
72.783760 23.597860 74.181229 0.354973 0.771693 0.527716 
72.818993 23.612110 74.138023 0.229169 0.882359 0.411003 
72.814636 23.664070 74.071907 0.455376 0.714331 0.531379 
72.845047 23.616510 74.080597 0.513336 0.800405 0.309576 
74.390610 25.203630 76.180183 0.212298 0.976598 -0.034436 
74.403397 25.194090 76.103371 0.713116 0.698758 -0.056602 
72.925774 23.561661 73.618423 0.907875 0.407902 0.096842 
72.937927 23.551100 73.539253 0.625781 0.518950 0.582313 
72.993294 23.586910 73.527092 0.400802 0.598716 0.693467 
73.011642 23.582979 73.457481 0.298684 0.722572 0.623440 
73.062119 23.613541 73.437759 0.307938 0.618844 0.722638 
73.097023 23.627380 73.393837 0.431257 0.852766 0.294631 
73.110870 23.618601 73.317162 0.423559 0.905855 0.004967 
73.126060 23.611250 73.242523 0.517204 0.855690 0.017147 
74.669830 25.200121 75.354568 0.912015 0.404840 0.065829 
74.670227 25.177130 75.257980 0.773130 0.345114 0.532134 
74.716873 25.203859 75.233498 0.277642 0.206399 0.938251 
74.770767 25.238411 75.220390 -0.050030 0.400589 0.914891 
74.833237 25.282190 75.220703 0.477785 0.442863 0.758679 
74.852203 25.279140 75.153008 0.441529 0.215091 0.871084 
74.912697 25.320820 75.150291 0.655340 0.373396 0.656586 
74.926224 25.311911 75.074059 0.324403 0.794725 0.513005 
74.974861 25.340811 75.052788 0.461319 0.786819 0.410001 
74.986969 25.330370 74.974297 0.750509 0.660065 -0.032415 
74.984840 25.304581 74.873444 0.862562 0.479963 -0.160068 
75.087273 25.320869 74.643646 0.749982 0.655970 0.085034 
75.101952 25.313150 74.568970 0.364166 0.679551 0.636862 
75.148872 25.340179 74.544960 0.679918 0.238197 0.693523 
75.193283 25.364510 74.517014 0.352824 0.691957 0.629850 
75.217491 25.367060 74.457283 0.552681 0.820546 0.145765 
75.228188 25.355009 74.376221 0.670915 0.701438 0.240538 
75.251213 25.356251 74.314537 0.854415 0.509910 0.099834 
75.263618 25.346029 74.236107 0.429522 0.658237 0.618252 
75.321060 25.384430 74.228706 0.382256 0.558096 0.736484 
75.342239 25.383659 74.164063 0.503312 0.481864 0.717275 
75.399551 25.421930 74.156487 0.498941 0.321089 0.804960 
75.422546 25.423120 74.094688 0.916205 0.241973 0.319401 
75.445892 25.424690 74.033432 0.847614 0.380786 0.369529 
69.824921 22.996321 80.579224 0.449349 0.855427 -0.257545 
69.829758 23.023790 80.679283 0.664303 0.711977 -0.227575 
69.749451 22.995720 80.504761 0.256431 0.928840 -0.267394 
69.827057 22.863880 80.022873 0.288742 0.327544 0.899635 
69.849319 22.864790 79.961861 0.519227 0.312967 0.795270 
69.905724 22.901590 79.950600 0.105431 0.420143 0.901313 
69.960648 22.936840 79.937233 0.175914 0.333393 0.926231 
70.004791 22.960760 79.908127 0.260564 0.406607 0.875658 
70.060257 22.996599 79.895599 0.121880 0.525315 0.842134 
70.102562 23.018579 79.863853 0.469107 0.794400 0.385834 
70.092407 22.985371 79.755417 0.569191 0.808533 -0.149319 
70.102524 22.973459 79.676537 0.309170 0.944438 -0.111580 
70.037514 22.983919 79.616959 0.257065 0.959885 -0.111979 
71.763618 24.655199 81.828979 -0.162294 0.806184 0.568971 
71.805000 24.676500 81.797073 0.271601 0.630695 0.726950 
71.839447 24.690500 81.755013 0.199504 0.592485 0.780487 
71.896317 24.728130 81.745850 0.072773 0.623453 0.778467 
71.933823 24.745340 81.708252 0.727585 0.511281 0.457396 
71.951523 24.741690 81.641602 0.557271 0.629608 0.541335 
72.002296 24.772909 81.623543 0.317662 0.770493 0.552659 
72.019630 24.768850 81.556282 0.754189 0.654721 -0.050390 
71.993500 24.718950 81.425056 0.580908 0.613706 0.534706 
72.046310 24.752310 81.409958 -0.096452 0.423383 0.900802 
72.122513 24.810329 81.429321 0.364425 0.792730 0.488645 
72.110977 24.775810 81.319473 0.855106 0.495872 -0.151341 
70.585770 23.143579 78.977341 0.316724 0.838998 0.442458 
70.628937 23.166470 78.946838 0.048231 0.860298 0.507505 
72.162987 24.718691 80.931030 0.626836 0.763678 -0.154504 
72.162148 24.695360 80.836601 0.683591 0.698656 -0.211146 
72.159714 24.670330 80.739738 0.288433 0.924354 0.249751 
72.204201 24.694870 80.712273 0.021352 0.844690 0.534830 
72.244377 24.714870 80.678452 -0.266493 0.735655 0.622731 
72.302513 24.753830 80.671211 -0.291674 0.576411 0.763333 
72.373062 24.805950 80.682442 0.358704 0.648107 0.671780 
72.379356 24.790110 80.598396 0.491875 0.655268 0.573309 
72.421143 24.811819 80.566994 0.758227 0.576834 0.303899 
72.447250 24.816931 80.512291 0.146803 0.838733 0.524381 
72.497932 24.848040 80.494087 0.392902 0.616848 0.682001 
72.532768 24.862379 80.452347 0.416288 0.680615 0.602883 
72.498131 24.803181 80.307289 0.389945 0.909516 -0.143958 
72.498787 24.781321 80.214607 0.783117 0.566252 -0.257073 
72.485397 24.744570 80.100990 0.672122 0.696332 -0.251741 
70.931107 23.075741 77.691437 0.172125 0.325652 0.929690 
70.982697 23.107479 77.673264 0.191387 0.334704 0.922683 
71.052559 23.158590 77.682343 0.352627 0.625401 0.696080 
71.054604 23.137840 77.590279 0.575089 0.482982 0.660304 
71.120239 23.184490 77.593117 0.479590 0.640117 0.600203 
71.118752 23.159990 77.495712 0.389494 0.794958 0.465120 
71.179939 23.201920 77.491943 0.433990 0.566385 0.700615 
71.192322 23.192110 77.415199 0.899419 0.261056 0.350565 
71.226257 23.205151 77.370667 0.587520 0.652804 0.478191 
71.246803 23.203970 77.306091 0.694896 0.628946 0.348637 
72.844498 24.808250 79.321480 0.813558 0.133470 0.565958 
72.840210 24.826420 79.409317 0.995836 0.085779 0.030868 
72.887360 24.831039 79.291496 0.131174 0.375737 0.917396 
71.398491 23.226990 76.960716 0.830671 0.555496 -0.037567 
71.405983 23.211910 76.876350 0.506303 0.319907 0.800822 
71.456268 23.242279 76.856277 0.298546 0.127384 0.945856 
71.516693 23.283440 76.851486 0.097939 0.513873 0.852257 
71.557747 23.304010 76.817574 -0.010339 0.677028 0.735885 
71.607239 23.333549 76.796356 0.134246 0.684185 0.716846 
71.652618 23.358730 76.768990 0.034319 0.836631 0.546691 
71.680618 23.365431 76.715408 0.103450 0.944670 0.311283 
71.712250 23.375980 76.667297 0.654067 0.746477 0.122346 
71.717773 23.358761 76.579773 0.480463 0.842529 0.243515 
71.754387 23.374611 76.539146 0.401748 0.901003 0.163682 
71.822403 23.354460 76.257889 0.172473 0.983789 -0.049121 
71.841957 23.352119 76.191360 0.126899 0.973135 0.192109 
71.870201 23.359020 76.137947 0.452871 0.816123 0.358959 
71.911163 23.379471 76.103813 0.378635 0.796551 0.471319 
71.932098 23.378580 76.039299 0.501963 0.716460 0.484477 
71.981750 23.408300 76.018349 -0.162501 0.595952 0.786406 
72.034103 23.440889 76.001503 0.168515 0.721812 0.671260 
71.999763 23.381050 75.852982 0.590927 0.806308 0.025939 
72.007423 23.365980 75.768188 0.477309 0.831959 0.282879 
72.059021 23.397770 75.750183 -0.196343 0.915704 0.350622 
72.092148 23.409840 75.704063 0.176287 0.982146 0.065661 
73.624878 24.976110 77.750587 0.690946 0.722781 0.013465 
73.625397 24.953650 77.655907 0.836575 0.533787 0.123344 
73.649323 24.956181 77.596893 0.277506 0.689506 0.669009 
73.702698 24.990160 77.582809 0.592610 0.633243 0.497813 
73.703583 24.968050 77.488564 0.505993 0.633963 0.584861 
73.759743 25.004999 77.478729 0.359723 0.602254 0.712664 
73.792137 25.016569 77.432617 0.240316 0.531281 0.812397 
73.861832 25.067989 77.443550 0.158969 0.317512 0.934834 
73.903992 25.089991 77.412376 0.601565 0.356598 0.714813 
73.931412 25.096230 77.358650 0.737637 0.419890 0.528757 
73.964508 25.108540 77.313599 0.412122 0.436335 0.799854 
74.016876 25.141460 77.298103 0.618218 0.576424 0.534361 
74.016296 25.117741 77.201370 0.815754 0.571179 -0.091106 
74.043327 25.100439 77.051064 0.404755 0.734471 0.544726 
74.009171 25.087009 77.094551 0.615493 0.732333 0.291303 
74.004646 25.138029 77.029121 0.404755 0.734471 0.544726 
72.526253 23.453300 74.623558 0.395631 0.532518 0.748265 
72.559273 23.465200 74.577003 0.761911 0.498895 0.413033 
72.588760 23.473301 74.525002 0.626003 0.445193 0.640252 
72.632057 23.496201 74.494247 0.674080 0.462713 0.575771 
72.651543 23.493580 74.426819 0.621187 0.518041 0.588014 
72.695457 23.517139 74.397018 0.532939 0.685625 0.495878 
72.701393 23.499990 74.308647 0.585603 0.650333 0.483877 
72.746887 23.525240 74.281288 0.370827 0.556813 0.743268 
72.794006 23.552231 74.256416 0.148603 0.725830 0.671631 
72.830116 23.567410 74.214561 0.071956 0.820752 0.566734 
72.876404 23.593510 74.188431 0.248660 0.842455 0.477952 
72.905441 23.601101 74.135643 0.289308 0.892352 0.346422 
74.453888 25.192341 76.240250 0.591368 0.779065 -0.208186 
74.426910 25.140091 76.101852 0.912309 0.399761 -0.088792 
74.421547 25.190269 76.034828 0.897375 0.384683 0.216187 
72.935837 23.492149 73.595512 0.811373 0.538876 0.226463 
72.931717 23.511370 73.687157 0.998083 0.051704 0.034025 
72.954903 23.488970 73.527023 0.550048 0.457909 0.698403 
73.012749 23.527470 73.518730 0.456995 0.236461 0.857463 
73.053490 23.547581 73.483887 0.359265 0.466147 0.808477 
73.094719 23.568220 73.449799 0.087733 0.602864 0.793005 
73.146263 23.599939 73.431763 0.183853 0.900952 0.393043 
73.161720 23.592880 73.357597 0.360852 0.932623 -0.001164 
73.175926 23.584471 73.281464 0.564633 0.819412 -0.098759 
74.701843 25.155130 75.366173 0.699147 0.704945 -0.119355 
74.707123 25.137350 75.277168 0.378926 0.825683 0.417927 
74.755600 25.166080 75.255592 -0.175411 0.584245 0.792394 
74.820267 25.212231 75.259308 0.135147 0.717399 0.683428 
74.831909 25.201309 75.180199 0.490278 0.618671 0.613901 
74.893387 25.244040 75.178970 0.010435 0.602033 0.798403 
74.931160 25.261240 75.140701 0.549084 0.456029 0.700389 
74.979073 25.289370 75.118294 0.490164 0.505013 0.710423 
75.004753 25.293539 75.061089 0.624712 0.704702 0.336349 
75.020172 25.286650 74.987770 0.730429 0.675454 -0.101166 
75.013397 25.255819 74.879623 0.774498 0.598650 -0.204381 
75.123291 25.280130 74.661530 0.411734 0.884222 0.220515 
75.158058 25.294069 74.618446 0.486653 0.840072 0.239685 
75.166557 25.279659 74.534019 0.502337 0.532269 0.681431 
75.230263 25.324810 74.536423 0.305915 0.536475 0.786518 
75.260338 25.333679 74.485931 0.789563 0.557994 0.255407 
75.274307 25.325159 74.410049 0.789418 0.589651 0.170681 
75.290627 25.319151 74.337807 0.530906 0.833017 0.155630 
75.310890 25.317400 74.271767 0.270488 0.841872 0.466999 
75.354263 25.340611 74.242172 0.524137 0.624830 0.578678 
75.383858 25.348930 74.190819 0.414842 0.691753 0.591086 
75.415543 25.359510 74.142761 0.586096 0.631676 0.507422 
75.446503 25.369301 74.093536 0.912910 0.330099 0.240065 
75.461960 25.362329 74.019783 0.968890 0.162626 0.186563 
75.522629 25.356810 73.820953 0.895281 0.445501 -0.001388 
75.516762 25.374189 73.910004 0.782255 0.393121 0.483252 
75.501846 25.414120 73.827171 0.939923 0.341355 -0.004696 
69.868896 22.986290 80.701027 0.684411 0.693131 -0.226167 
69.863724 22.958429 80.600456 0.659611 0.724288 -0.200801 
71.374527 24.434870 82.334053 0.543768 0.302348 0.782880 
69.912880 22.852810 80.019173 0.649304 0.589054 0.481060 
69.934929 22.853491 79.957863 0.269537 0.609928 0.745210 
69.990318 22.889240 79.945137 0.035692 0.588658 0.807594 
70.035042 22.913771 79.916908 0.179276 0.498782 0.847984 
70.084976 22.943790 79.896294 0.117909 0.338301 0.933622 
70.145653 22.985130 79.891403 0.590558 0.551288 0.589341 
70.150269 22.967440 79.804558 0.695832 0.717487 -0.032108 
70.157204 22.952181 79.721062 0.384332 0.922540 -0.034781 
71.834000 24.629200 81.804466 -0.108122 0.515628 0.849963 
71.897392 24.673710 81.804863 0.206286 0.513430 0.832968 
71.930122 24.685900 81.760277 0.532537 0.510130 0.675404 
71.966423 24.701851 81.720947 0.752164 0.491782 0.438634 
71.984123 24.698179 81.654266 0.624625 0.388062 0.677680 
72.035278 24.729799 81.636772 0.668171 0.413911 0.618244 
72.038200 24.710541 81.548332 0.770259 0.634515 0.063967 
72.067421 24.719021 81.498550 -0.173692 0.881420 0.439237 
72.122803 24.755091 81.487259 -0.169287 0.810517 0.560717 
72.153809 24.765459 81.440109 0.548420 0.823189 0.146955 
72.167290 24.757299 81.367104 0.378986 0.925138 -0.022106 
70.638451 23.120199 79.019173 0.227214 0.833654 0.503383 
70.668266 23.128990 78.968971 0.488481 0.762802 0.423697 
72.211807 24.692209 80.967667 0.761954 0.632203 -0.140521 
72.213280 24.671301 80.876640 0.638978 0.758253 -0.129462 
72.217407 24.653191 80.789513 0.125502 0.982077 0.140620 
72.255020 24.670469 80.751892 -0.049530 0.844404 0.533412 
72.314484 24.710850 80.746628 0.192545 0.561724 0.804607 
72.350029 24.725960 80.705994 0.020748 0.571363 0.820435 
72.398354 24.754580 80.684273 0.319345 0.435517 0.841632 
72.458832 24.796070 80.680603 0.383277 0.687172 0.617165 
72.457489 24.772129 80.585213 0.735429 0.649392 0.193478 
72.489670 24.783661 80.539528 0.571802 0.680079 0.458841 
72.503922 24.776211 80.467209 0.582887 0.486950 0.650479 
72.556931 24.809790 80.452477 0.518825 0.397563 0.756812 
72.583817 24.815710 80.398911 -0.074454 0.901408 0.426522 
72.543694 24.750629 80.245567 0.288023 0.944875 -0.155739 
72.569252 24.755131 80.189941 -0.140947 0.989898 0.015343 
70.995193 23.064270 77.750481 -0.052056 0.956480 0.287116 
71.026154 23.074169 77.701576 0.153919 0.721864 0.674701 
71.082527 23.111010 77.690567 0.707116 0.332716 0.623929 
71.100067 23.106670 77.621643 0.271943 0.623784 0.732762 
71.150749 23.137480 77.602150 0.316344 0.770558 0.553324 
71.175179 23.140430 77.543457 0.291474 0.903167 0.315171 
71.200180 23.143999 77.485611 0.880874 0.437647 0.180352 
71.218552 23.140530 77.417824 0.422091 0.636398 0.645629 
71.274452 23.176870 77.406174 0.373919 0.730324 0.571675 
71.293404 23.174000 77.339211 0.540733 0.823089 0.173589 
72.860130 24.746380 79.308617 -0.179178 0.365288 0.913488 
72.930939 24.798870 79.320610 0.247390 0.534575 0.808101 
71.429733 23.157591 76.875183 0.217010 0.388028 0.895735 
71.476822 23.184580 76.850304 0.184192 0.223061 0.957245 
71.540710 23.229429 76.850723 0.242684 0.017720 0.969943 
71.594139 23.263170 76.835426 0.442285 0.136424 0.886438 
71.630463 23.278721 76.794403 0.345159 0.121111 0.930697 
71.695053 23.324320 76.795959 0.174709 0.382097 0.907457 
71.739037 23.348040 76.766510 0.568278 0.661666 0.489141 
71.735840 23.321529 76.665871 0.544273 0.820293 0.175746 
71.774643 23.339701 76.628563 0.408470 0.846789 0.340735 
71.798653 23.342140 76.568916 0.708806 0.684540 0.170289 
71.747101 23.343731 76.432182 0.399939 0.905748 -0.140249 
71.817291 23.338840 76.501129 0.379884 0.910857 0.161330 
71.892853 23.326639 76.231178 0.619559 0.784125 -0.035981 
71.897667 23.308580 76.142303 0.581527 0.722969 0.373017 
71.936501 23.326771 76.104927 0.731384 0.581851 0.355707 
71.945824 23.313480 76.022789 0.450042 0.552008 0.701961 
72.012810 23.361691 76.028137 0.512690 0.069481 0.855758 
72.041283 23.368830 75.975052 0.850648 0.208480 0.482633 
72.053284 23.358379 75.896912 0.595355 0.803459 0.002405 
72.065620 23.348280 75.819229 0.263734 0.852728 0.450887 
72.121483 23.384621 75.807716 0.249932 0.831931 0.495403 
72.120407 23.360201 75.709587 0.799140 0.580114 -0.157618 
73.656952 24.931511 77.762367 0.921176 0.385269 -0.054805 
73.661621 24.913460 77.674011 0.471800 0.734439 0.487857 
73.714417 24.946831 77.659058 0.465663 0.626584 0.624940 
73.731331 24.941851 77.589317 0.632252 0.532183 0.563062 
73.788231 24.979610 77.580658 0.519205 0.571765 0.635225 
73.792297 24.960890 77.491257 0.770467 0.270799 0.577104 
73.846123 24.995359 77.477913 0.482040 0.187670 0.855814 
73.866409 24.993971 77.413254 0.368168 0.141047 0.918998 
73.928062 25.036831 77.411926 0.594348 0.296652 0.747494 
73.952003 25.039330 77.352837 0.545920 0.491460 0.678556 
73.994507 25.061710 77.322212 0.637475 0.310059 0.705329 
74.025742 25.072020 77.274307 0.912460 0.159268 0.376895 
74.048897 25.073681 77.213982 0.735271 0.594636 0.325244 
72.576057 23.426559 74.662086 0.448513 0.851268 0.272359 
72.600357 23.429110 74.602127 0.616067 0.765143 0.187130 
72.614128 23.420370 74.525963 0.348353 0.782914 0.515457 
72.662498 23.448709 74.503014 0.465570 0.795835 0.387157 
72.682091 23.446190 74.435738 0.227854 0.747920 0.623457 
72.750092 23.495569 74.443047 0.267976 0.834643 0.481207 
72.757187 23.479670 74.356506 0.483186 0.864383 0.139188 
72.783203 23.484011 74.299072 0.227541 0.772655 0.592646 
72.833252 23.514151 74.278748 0.012545 0.717601 0.696342 
72.879372 23.540079 74.252373 0.556189 0.536487 0.634693 
72.909767 23.549150 74.201714 0.501683 0.556019 0.662690 
72.945221 23.563620 74.158836 0.542015 0.752123 0.374874 
72.931389 23.430679 73.648132 0.266616 0.386973 0.882705 
72.990868 23.470930 73.642357 0.496656 0.631909 0.594999 
72.993027 23.449591 73.547653 0.492983 0.728387 0.475836 
73.034866 23.470881 73.514503 0.365358 0.494428 0.788704 
73.080223 23.495951 73.486801 0.015044 0.476720 0.878926 
