13.663900 -0.066902 12.452700 0.877183 0.420654 0.231518 
13.681250 -0.072419 12.353240 0.441986 0.581216 0.683254 
13.760040 -0.026036 12.338290 0.005899 0.279277 0.960193 
13.849160 0.029094 12.337640 0.309722 0.444596 0.840480 
13.891820 0.044960 12.273000 0.717243 0.527275 0.455570 
13.920340 0.048875 12.188870 0.805427 0.545472 0.231835 
13.932370 0.038838 12.081950 0.618383 0.547497 0.563781 
14.001640 0.077192 12.053970 0.284655 0.296811 0.911523 
14.056920 0.103722 12.006710 0.617291 0.197894 0.761439 
14.111440 0.129611 11.958400 0.343265 0.123765 0.931048 
14.200050 0.184337 11.957210 0.387219 0.040813 0.921084 
14.259480 0.214381 11.915720 0.678063 0.207651 0.705062 
14.301120 0.229377 11.849630 0.748401 0.398366 0.530283 
14.338950 0.241145 11.778250 0.607810 0.526313 0.594610 
14.390060 0.264155 11.725260 0.592187 0.546440 0.592214 
14.426400 0.274653 11.651780 0.582899 0.610921 0.535728 
14.473670 0.294408 11.593440 0.415548 0.513837 0.750527 
14.541890 0.331899 11.564160 0.464496 0.492798 0.735794 
14.577420 0.341710 11.489530 0.752198 0.453219 0.478321 
14.624410 0.361228 11.430800 0.506953 0.718704 0.475882 
14.654940 0.366793 11.349180 0.171586 0.856544 0.486715 
14.729840 0.409953 11.329230 0.303903 0.838517 0.452253 
14.739140 0.397531 11.218060 0.754177 0.640461 0.145009 
14.765400 0.399468 11.130440 0.647962 0.572221 0.502701 
14.816800 0.422709 11.077780 0.222252 0.352567 0.909011 
14.907460 0.479227 11.079800 0.107624 0.137654 0.984616 
14.976310 0.517272 11.051490 0.309074 0.221072 0.924987 
15.045120 0.555279 11.023140 0.538176 0.560295 0.629631 
15.066250 0.552860 10.928310 0.752347 0.564830 0.339029 
15.110220 0.569807 10.865320 0.771951 0.469301 0.428774 
15.135930 0.571261 10.776810 0.388615 0.690004 0.610632 
15.200570 0.605734 10.742650 0.195952 0.725615 0.659611 
15.249640 0.626999 10.686750 0.547242 0.742061 0.387132 
15.265020 0.619678 10.583730 0.775415 0.283943 0.564010 
15.330580 0.654939 10.550890 0.799539 -0.087438 0.594215 
15.369570 0.667646 10.480850 0.372799 -0.052394 0.926432 
15.484400 0.744735 10.517040 -0.188564 0.010437 0.982005 
15.579410 0.805010 10.525540 0.555798 0.365750 0.746536 
15.590900 0.794369 10.416980 0.772920 0.588646 0.236834 
15.636640 0.812811 10.356430 0.697840 0.680292 0.224104 
15.617850 0.776437 10.205280 0.879348 0.469116 -0.081718 
15.628650 0.765187 10.095600 0.555835 0.438809 0.706041 
15.706720 0.811079 10.080370 0.668065 0.060424 0.741645 
15.742180 0.820771 10.005280 0.706938 0.047137 0.705703 
15.809990 0.857952 9.975663 0.641820 -0.004971 0.766839 
15.847390 0.869291 9.903285 0.809567 0.165990 0.563071 
15.898010 0.891866 9.849502 0.774175 0.398937 0.491428 
15.906860 0.878923 9.736869 0.796378 0.407883 0.446558 
15.961850 0.905208 9.689211 0.627452 0.511091 0.587444 
16.000111 0.917264 9.617963 0.320206 0.640936 0.697617 
16.062250 0.949629 9.580389 0.291982 0.450928 0.843451 
16.135080 0.991087 9.557915 0.151443 0.483545 0.862119 
16.195890 1.022326 9.518499 0.465116 0.446767 0.764242 
16.248301 1.046425 9.467239 0.766588 0.472091 0.435285 
16.255430 1.031978 9.351947 0.466691 0.495865 0.732337 
16.348619 1.090778 9.358333 0.447512 0.181840 0.875595 
16.390770 1.106141 9.292549 0.604287 0.227146 0.763702 
16.453270 1.138825 9.255564 0.167530 0.294621 0.940815 
16.533489 1.186604 9.243702 0.374553 0.666693 0.644384 
16.550270 1.180355 9.141952 0.754528 0.595818 0.275115 
16.593321 1.196471 9.077402 0.468465 0.797591 0.379985 
16.617960 1.196907 8.986728 0.603580 0.796612 0.033175 
16.625879 1.183097 8.872288 0.340578 0.845513 0.411236 
16.701679 1.227106 8.854175 0.000519 0.477146 0.878824 
16.787430 1.279612 8.850257 0.344059 0.435050 0.832079 
16.836069 1.300495 8.793627 0.160318 0.546899 0.821705 
16.908920 1.342011 8.771423 0.479488 0.633043 0.607739 
16.927299 1.337091 8.671727 0.162729 0.891128 0.423568 
16.995850 1.374940 8.643417 0.020453 0.880702 0.473229 
17.046089 1.397184 8.589057 0.084166 0.912545 0.400221 
17.088499 1.412747 8.523529 0.524016 0.833456 0.175383 
17.103519 1.404942 8.418926 0.393053 0.888705 0.236035 
17.144480 1.419262 8.351287 0.316445 0.811909 0.490578 
17.204611 1.449936 8.310997 0.169349 0.657722 0.733977 
17.257040 1.474036 8.259714 0.171902 0.471111 0.865161 
17.341690 1.525645 8.254493 0.432493 0.429320 0.792864 
17.376551 1.534758 8.178127 0.835839 0.220163 0.502892 
17.411840 1.544231 8.102346 0.879165 0.206531 0.429435 
17.447300 1.553843 8.026784 0.485112 0.287686 0.825774 
17.531919 1.605436 8.021596 0.496171 0.354337 0.792628 
17.566231 1.614069 7.944384 0.359278 0.861679 0.358370 
17.606979 1.628194 7.876368 0.461183 0.886762 0.031038 
17.592520 1.595142 7.729143 0.677434 0.685634 0.266438 
17.638321 1.613580 7.668317 0.721671 0.589295 0.363212 
17.658251 1.609899 7.570326 0.514356 0.685461 0.515346 
17.727680 1.648518 7.543392 0.156527 0.653778 0.740320 
17.772640 1.666224 7.481316 0.250493 0.367517 0.895648 
17.880239 1.737496 7.509323 -0.122689 0.111013 0.986217 
17.967291 1.791194 7.507824 -0.024040 0.294583 0.955324 
18.045300 1.837183 7.493388 -0.176241 0.294002 0.939416 
18.142570 1.899645 7.506717 -0.004749 0.413761 0.910373 
18.205320 1.932591 7.470378 0.272143 0.790730 0.548348 
18.207041 1.913311 7.346053 0.578058 0.815755 0.019818 
18.253170 1.932032 7.285728 -0.024275 0.959890 0.279325 
7.208722 -2.940660 19.904011 0.509259 0.702138 0.497652 
7.253595 -2.922805 19.843140 0.464951 0.725001 0.508129 
7.293279 -2.909261 19.775579 0.455882 0.600589 0.656859 
7.354725 -2.877640 19.736019 0.690780 0.458735 0.558915 
7.378118 -2.877637 19.647470 0.466638 0.428408 0.773767 
7.464683 -2.825140 19.640270 0.151555 0.339059 0.928477 
7.520629 -2.798084 19.593660 0.394620 0.368636 0.841655 
7.582597 -2.766021 19.554819 0.435753 0.291521 0.851548 
7.643640 -2.734725 19.514790 0.751128 0.283656 0.596109 
7.678928 -2.724842 19.441530 0.580983 0.304981 0.754616 
7.745919 -2.688599 19.409201 0.660133 0.286934 0.694186 
7.773088 -2.685471 19.325439 0.706802 0.310353 0.635699 
7.831289 -2.656536 19.281759 0.773478 0.168106 0.611124 
7.867342 -2.646025 19.209440 0.597048 0.264234 0.757439 
7.939463 -2.605508 19.183781 0.383638 0.183657 0.905037 
7.997031 -2.577095 19.139311 0.864145 0.258537 0.431754 
7.991710 -2.601020 19.013371 0.691380 0.593533 0.411962 
8.052680 -2.569780 18.973280 0.733422 0.539483 0.413582 
8.053955 -2.588232 18.855789 0.594229 0.458921 0.660517 
8.137387 -2.538292 18.844839 0.311913 0.531651 0.787437 
8.175424 -2.526147 18.775000 0.299722 0.530524 0.792913 
8.270619 -2.466401 18.779381 0.218810 0.596623 0.772116 
8.311000 -2.452302 18.712589 0.617722 0.580538 0.530467 
8.352399 -2.437356 18.647110 0.565157 0.220416 0.794993 
8.417268 -2.402860 18.612150 0.633707 0.238804 0.735790 
8.454726 -2.391200 18.541531 0.398575 0.269530 0.876637 
8.554512 -2.327603 18.552059 0.275081 0.380914 0.882743 
8.598205 -2.310746 18.489559 0.633260 0.598384 0.490834 
8.630401 -2.303473 18.412081 0.668142 0.674814 0.313388 
8.658947 -2.299247 18.329809 0.621856 0.599986 0.503302 
8.709381 -2.276776 18.276070 0.565493 0.246775 0.786968 
8.773643 -2.242775 18.240379 0.686547 0.308494 0.658395 
8.795111 -2.244461 18.148821 0.893689 0.150039 0.422858 
8.841633 -2.225255 18.089951 0.870470 0.091540 0.483635 
8.873559 -2.218226 18.011999 0.811731 0.154201 0.563308 
8.919569 -2.199451 17.952450 0.642344 0.398052 0.654941 
8.967190 -2.179333 17.894991 0.276102 0.557134 0.783179 
9.044291 -2.134614 17.876150 0.429065 0.578750 0.693507 
9.073749 -2.129654 17.794910 0.691483 0.564285 0.451036 
9.109859 -2.119145 17.722361 0.544142 0.244498 0.802578 
9.191089 -2.070971 17.708969 0.720510 0.050387 0.691612 
9.218912 -2.067383 17.625549 0.526075 0.143910 0.838174 
9.311849 -2.009427 17.627569 0.319871 0.364999 0.874333 
9.361499 -1.987612 17.572800 0.305290 0.593923 0.744347 
9.416098 -1.961665 17.524521 0.536199 0.686519 0.491103 
9.447884 -1.954775 17.446260 0.435409 0.847869 0.302551 
9.476716 -1.950355 17.364080 0.685209 0.713096 0.148265 
9.483761 -1.964148 17.253201 0.588075 0.617079 0.522860 
9.548976 -1.929335 17.218861 0.231229 0.344760 0.909766 
9.620704 -1.889076 17.193130 0.594466 0.353139 0.722429 
9.654902 -1.880184 17.117950 0.577455 0.360444 0.732547 
9.718754 -1.846506 17.081850 0.767572 0.094751 0.633920 
9.744065 -1.845049 16.994921 0.649196 -0.048287 0.759087 
9.843381 -1.781711 17.005659 0.437900 -0.181552 0.880501 
9.896777 -1.756768 16.955811 0.626024 -0.072800 0.776398 
9.958259 -1.725062 16.916639 0.492821 0.218304 0.842301 
10.011340 -1.700376 16.866390 0.702290 0.582162 0.409726 
10.014450 -1.717509 16.750019 0.632694 0.614501 0.471262 
10.082560 -1.680259 16.719629 0.614033 0.561054 0.555141 
10.098960 -1.686282 16.620781 0.404029 0.504682 0.762927 
10.197450 -1.623590 16.630659 0.431344 0.367017 0.824160 
10.233530 -1.613148 16.557850 0.849284 0.406333 0.337061 
10.249800 -1.619287 16.458759 0.835613 0.435512 0.334786 
10.283600 -1.610759 16.382879 0.657321 0.361020 0.661508 
10.356020 -1.569886 16.358271 0.258870 0.311401 0.914339 
10.416080 -1.539366 16.317249 0.488729 0.561007 0.668143 
10.446810 -1.533409 16.237270 0.408030 0.610956 0.678413 
10.520080 -1.491820 16.213831 0.564895 0.515140 0.644612 
10.539360 -1.495468 16.118580 0.739670 0.388822 0.549277 
10.603510 -1.461511 16.083031 0.661206 0.528995 0.531951 
10.601940 -1.482648 15.959960 0.681895 0.388434 0.619788 
10.677770 -1.438901 15.939970 0.463760 0.303296 0.832429 
10.724510 -1.419547 15.881210 0.269031 0.375181 0.887052 
10.818740 -1.360364 15.885810 -0.098075 0.311738 0.945093 
10.895250 -1.316043 15.866800 0.202755 0.668938 0.715131 
10.934700 -1.302788 15.798360 0.383915 0.670399 0.634961 
10.990650 -1.275702 15.751940 0.833011 0.394546 0.387848 
11.003320 -1.284926 15.647670 0.844676 0.319292 0.429621 
11.058300 -1.258658 15.599930 0.655981 0.532455 0.534959 
11.074320 -1.265080 15.500080 0.456091 0.649672 0.608200 
11.152020 -1.219741 15.482750 0.499918 0.470735 0.726973 
11.172780 -1.222188 15.389200 0.773768 0.377028 0.509052 
11.224270 -1.198854 15.336770 0.859650 0.180439 0.477958 
11.244980 -1.201354 15.243090 0.840113 0.203946 0.502610 
11.300820 -1.174366 15.196480 0.644063 0.426259 0.635206 
11.331570 -1.168447 15.116210 0.370421 0.522030 0.768293 
11.429260 -1.106311 15.125780 -0.012819 0.161095 0.986856 
11.510730 -1.057783 15.113640 0.446650 -0.109814 0.887944 
11.557540 -1.038380 15.054940 0.743726 -0.227722 0.628502 
11.619550 -1.006190 15.016700 0.678355 -0.063842 0.731955 
11.661110 -0.991195 14.950950 0.902695 0.250345 0.349957 
11.681670 -0.993848 14.856920 0.730442 0.492566 0.473110 
11.734470 -0.969411 14.806260 0.677931 0.527380 0.512133 
11.752380 -0.974302 14.708590 0.821923 0.301425 0.483308 
11.806210 -0.948999 14.659310 0.715632 0.170597 0.677324 
11.848620 -0.933296 14.594630 0.442652 0.103990 0.890643 
11.947240 -0.870318 14.605790 0.165523 0.078085 0.983110 
12.017900 -0.830855 14.579260 0.589914 0.285054 0.755477 
12.052640 -0.821609 14.504230 0.468141 0.381093 0.797253 
12.130840 -0.775793 14.487930 0.391815 0.685642 0.613495 
12.145640 -0.783324 14.385930 0.438203 0.820117 0.367949 
12.210690 -0.748565 14.351870 0.426056 0.790932 0.439207 
12.218980 -0.761593 14.240980 0.657358 0.695978 0.288955 
12.261890 -0.745476 14.176940 0.331855 0.706448 0.625143 
12.324540 -0.712746 14.139620 -0.112255 0.632388 0.766476 
12.403010 -0.666685 14.123780 0.440704 0.664182 0.603856 
12.420350 -0.672111 14.025040 0.727829 0.526114 0.439851 
12.465480 -0.654127 13.963980 0.733606 0.398881 0.550196 
12.510750 -0.636036 13.903090 0.464015 0.548728 0.695405 
12.571740 -0.604691 13.863570 0.348964 0.507169 0.788038 
12.620000 -0.584077 13.806750 0.661567 0.508789 0.550874 
12.657300 -0.572704 13.735010 0.458489 0.532930 0.711178 
12.733580 -0.528469 13.716310 0.507395 0.573965 0.642740 
12.751060 -0.533803 13.617590 0.807675 0.536321 0.244992 
12.776790 -0.532187 13.530050 0.618037 0.572634 0.538629 
12.832280 -0.505481 13.483040 0.010180 0.542503 0.839992 
12.933260 -0.440412 13.498060 -0.093198 0.623519 0.776233 
12.991340 -0.411516 13.454630 0.467589 0.824909 0.317625 
12.991940 -0.431114 13.332740 0.561515 0.824825 -0.066068 
12.995490 -0.448227 13.214820 0.605116 0.766297 0.215926 
13.037850 -0.432605 13.149860 0.504379 0.760022 0.409839 
13.078210 -0.418671 13.082150 -0.037552 0.771046 0.635671 
13.160520 -0.369327 13.071810 -0.100716 0.387078 0.916530 
13.250660 -0.313374 13.072220 0.357599 0.452122 0.817134 
13.282940 -0.306264 12.993460 0.378337 0.354589 0.855060 
13.386420 -0.239032 13.012210 0.573896 0.320419 0.753641 
13.388280 -0.257609 12.891770 0.763074 0.432981 0.479838 
13.445880 -0.229113 12.847700 0.658395 0.562425 0.500194 
13.468060 -0.230543 12.755030 0.393869 0.686403 0.611324 
13.537380 -0.192153 12.727020 0.217654 0.553682 0.803780 
13.593150 -0.165204 12.680440 0.655259 0.384245 0.650378 
13.631970 -0.152577 12.610580 0.882891 0.169814 0.437797 
13.664950 -0.144892 12.532660 0.859115 0.326786 0.393870 
13.692170 -0.142082 12.446800 0.681327 0.540618 0.493483 
13.748950 -0.114283 12.401590 0.254755 0.658945 0.707737 
13.796280 -0.094476 12.343360 0.201321 0.429437 0.880371 
13.891040 -0.034556 12.350480 0.432269 0.440811 0.786657 
13.912020 -0.037030 12.255970 0.680971 0.475900 0.556595 
13.980000 0.000242 12.226220 0.576772 0.651747 0.492504 
13.978080 -0.021611 12.100060 0.412581 0.772140 0.483298 
14.048220 0.017488 12.073290 0.330302 0.581529 0.743454 
14.100590 0.041558 12.022010 0.625476 0.341960 0.701315 
14.152310 0.065078 11.969840 0.319812 0.233923 0.918151 
14.225650 0.106901 11.947550 0.580488 0.063112 0.811819 
14.267620 0.122171 11.881910 0.671765 0.036034 0.739887 
14.337720 0.161250 11.855180 0.641951 0.251366 0.724371 
14.365630 0.164613 11.770060 0.612597 0.386273 0.689579 
14.433660 0.201944 11.740480 0.451186 0.572281 0.684781 
14.464580 0.207852 11.659500 0.721671 0.491861 0.487097 
14.514480 0.229828 11.604800 0.424258 0.479625 0.768092 
14.566410 0.253528 11.552930 0.759156 0.296569 0.579421 
14.609020 0.269333 11.488120 0.497314 0.473903 0.726701 
14.666150 0.297440 11.443460 0.290632 0.694440 0.658244 
14.719780 0.322570 11.393930 0.256677 0.693132 0.673561 
14.775590 0.349564 11.347460 0.493534 0.767451 0.409198 
14.784930 0.337154 11.236350 0.664115 0.737998 0.119626 
14.816070 0.343217 11.155510 0.461675 0.773867 0.433574 
14.862460 0.362211 11.095880 0.248362 0.511742 0.822458 
14.945310 0.412132 11.087050 0.136886 0.227965 0.963999 
15.014110 0.450136 11.058660 0.100603 0.327639 0.939432 
15.090060 0.494214 11.040280 0.656624 0.451067 0.604470 
15.098970 0.481407 10.928390 0.762898 0.574840 0.295882 
15.131720 0.488828 10.849720 0.565836 0.506820 0.650356 
15.213390 0.537763 10.839350 0.287607 0.486585 0.824935 
15.260080 0.557012 10.780150 0.419429 0.564648 0.710811 
15.317550 0.585414 10.736010 0.708587 0.592192 0.383683 
15.297720 0.548177 10.583750 0.938228 0.287329 0.192797 
15.330040 0.555208 10.504370 0.853124 -0.089038 0.514054 
15.391720 0.587179 10.466080 0.136252 -0.143239 0.980264 
15.512780 0.669592 10.510990 -0.015195 -0.206101 0.978413 
15.598910 0.722346 10.507050 0.717330 -0.065734 0.693626 
15.625010 0.724098 10.418960 0.913997 0.203396 0.351056 
15.642510 0.718533 10.318770 0.962149 0.269492 0.040540 
15.646570 0.701540 10.199670 0.861559 0.505510 0.046650 
15.662000 0.694206 10.096470 0.668380 0.453749 0.589389 
15.724510 0.726878 10.059370 0.732686 0.240311 0.636728 
15.753050 0.730677 9.974532 0.692963 0.118002 0.711250 
15.830230 0.775834 9.958088 0.451300 0.164116 0.877151 
15.879110 0.796922 9.901840 0.564153 0.375551 0.735318 
15.935580 0.824477 9.856296 0.666226 0.546222 0.507725 
15.958550 0.823517 9.763536 0.540678 0.724640 0.427274 
16.006390 0.843723 9.705810 0.386777 0.630993 0.672496 
16.072241 0.879252 9.673475 0.454608 0.578583 0.677180 
16.107380 0.888648 9.597830 0.539676 0.332251 0.773537 
16.181931 0.931583 9.577794 0.511133 0.222520 0.830198 
16.219931 0.943407 9.506164 0.775901 0.085437 0.625043 
16.275770 0.970423 9.459734 0.722119 0.397389 0.566239 
16.298849 0.969536 9.366981 0.604781 0.431514 0.669355 
16.366079 1.006251 9.336656 0.610917 0.050903 0.790057 
16.417570 1.029563 9.284074 0.503201 0.008453 0.864128 
16.500450 1.079616 9.275945 0.003067 0.103810 0.994592 
16.584209 1.130419 9.269097 0.606819 0.412963 0.679141 
16.586050 1.111423 9.146172 0.526449 0.676499 0.514977 
16.660561 1.154357 9.126253 0.229284 0.846468 0.480543 
16.674580 1.145724 9.020514 0.640547 0.718259 0.271668 
16.750839 1.169560 8.877392 0.427201 0.754085 0.498854 
16.746630 1.186567 8.997131 0.541389 0.703107 0.461019 
16.812651 1.201663 8.839451 0.234785 0.552952 0.799450 
16.877359 1.236248 8.805658 0.256471 0.452175 0.854260 
16.946400 1.274529 8.778046 0.327561 0.272973 0.904538 
17.030390 1.325563 8.771729 0.390818 0.465637 0.794005 
17.062340 1.332203 8.691348 0.505437 0.589086 0.630485 
17.121559 1.362112 8.649801 0.462461 0.728163 0.505874 
17.132910 1.351169 8.540024 0.749110 0.634582 0.190104 
17.173540 1.365205 8.471945 0.570858 0.752368 0.328730 
17.192539 1.360769 8.372975 0.586784 0.641048 0.494714 
17.249451 1.388697 8.328093 0.380024 0.498028 0.779455 
17.309299 1.419139 8.287421 0.340226 0.389380 0.855938 
17.365999 1.446897 8.242267 0.666438 0.400775 0.628681 
17.394421 1.450496 8.156673 0.726254 0.449280 0.520292 
17.449539 1.476898 8.109244 0.657236 0.467484 0.591185 
17.484970 1.486477 8.033634 0.388946 0.416102 0.821937 
17.567320 1.536152 8.025209 0.080994 0.303201 0.949478 
17.651020 1.586981 8.018752 0.473515 0.566984 0.674027 
17.665810 1.578922 7.913558 0.857494 0.513766 -0.027355 
17.645100 1.540490 7.757364 0.708022 0.662552 0.244396 
17.697281 1.564372 7.705687 0.526157 0.732295 0.432323 
17.718149 1.561486 7.609063 0.477900 0.686751 0.547709 
17.785240 1.598118 7.578788 0.332549 0.621812 0.709056 
17.824350 1.610822 7.508320 0.101498 0.590858 0.800365 
17.912491 1.665466 7.508344 -0.034285 0.177753 0.983478 
18.002010 1.721311 7.510425 -0.090760 0.207497 0.974016 
18.078350 1.765878 7.493574 0.022088 0.152479 0.988060 
18.174999 1.827836 7.506018 0.022014 0.026835 0.999397 
7.264428 -2.992723 19.934509 0.350924 0.632899 0.690139 
7.309154 -2.974992 19.873449 0.453474 0.765702 0.456138 
7.341602 -2.967468 19.796591 0.819930 0.427391 0.380856 
7.378790 -2.956008 19.725809 0.793765 0.257933 0.550825 
7.425013 -2.937038 19.666651 0.276889 0.364240 0.889192 
7.511259 -2.884786 19.659060 0.074206 0.402658 0.912338 
7.573053 -2.852863 19.619989 0.404052 0.490164 0.772322 
7.625326 -2.828857 19.568649 0.596973 0.404330 0.692922 
7.665703 -2.814748 19.501961 0.802254 0.325158 0.500660 
7.702128 -2.803929 19.430149 0.611133 0.209705 0.763243 
7.778325 -2.760017 19.409710 0.519433 0.367534 0.771433 
7.810930 -2.752379 19.332960 0.719167 0.437622 0.539709 
7.858241 -2.732505 19.275200 0.737761 0.304195 0.602639 
7.901820 -2.715737 19.212601 0.641763 0.191082 0.742717 
7.963004 -2.684315 19.172791 0.530903 0.046644 0.846148 
8.024402 -2.652712 19.133270 0.759335 0.302954 0.575872 
8.053025 -2.648401 19.051291 0.736310 0.598155 0.316320 
8.068603 -2.654959 18.952370 0.839805 0.481919 0.249964 
8.107863 -2.641798 18.884130 0.371894 0.507947 0.776972 
8.185208 -2.596911 18.865290 0.330420 0.504821 0.797482 
8.226543 -2.582022 18.799740 0.313829 0.464321 0.828201 
8.309038 -2.532836 18.787640 0.538262 0.377629 0.753439 
8.327236 -2.537230 18.692011 0.918699 0.147437 0.366408 
8.376674 -2.515592 18.636959 0.448790 0.136336 0.883176 
8.450761 -2.473404 18.613991 0.494016 0.311615 0.811692 
8.494407 -2.456593 18.551420 0.233758 0.358028 0.903977 
8.593552 -2.393504 18.561119 0.357455 0.248876 0.900159 
8.640018 -2.374338 18.502239 0.681471 0.399756 0.613019 
8.687280 -2.354509 18.444401 0.782734 0.471561 0.406150 
8.697882 -2.365262 18.338720 0.869304 0.370374 0.327313 
8.733979 -2.354752 18.266270 0.601454 0.248559 0.759258 
8.804552 -2.315479 18.238819 0.706435 0.348941 0.615784 
8.813531 -2.327605 18.130920 0.752169 0.510527 0.416659 
8.860081 -2.308380 18.072081 0.565027 0.615029 0.549985 
8.898466 -2.295972 18.002560 0.455202 0.561096 0.691348 
8.979147 -2.248256 17.988359 0.335539 0.570748 0.749440 
9.017015 -2.236280 17.918150 0.335076 0.582441 0.740599 
9.086348 -2.198034 17.889139 0.620826 0.443892 0.646170 
9.116820 -2.192237 17.809231 0.839404 0.392507 0.375950 
9.151704 -2.182760 17.735069 0.753116 0.257288 0.605491 
9.193223 -2.167744 17.669600 0.826066 -0.046224 0.561675 
9.250001 -2.139982 17.624140 0.274324 0.058347 0.959866 
9.333782 -2.089653 17.614149 0.254624 0.099893 0.961867 
9.402143 -2.052204 17.583950 0.373717 0.334398 0.865167 
9.458022 -2.025184 17.537359 0.583451 0.498616 0.641067 
9.496750 -2.012501 17.468220 0.666778 0.625179 0.405659 
9.528477 -2.005674 17.389851 0.805073 0.568844 0.168149 
9.540926 -2.014969 17.286079 0.665138 0.588050 0.460206 
9.595393 -1.989135 17.237600 0.220558 0.511198 0.830681 
9.658613 -1.955979 17.200661 0.490694 0.586438 0.644445 
9.695879 -1.944531 17.129520 0.618766 0.498208 0.607385 
9.747907 -1.920737 17.077841 0.809218 0.346968 0.474109 
9.767634 -1.923968 16.983521 0.643729 0.260297 0.719624 
9.840840 -1.882454 16.959780 0.327545 0.054071 0.943287 
9.908480 -1.845594 16.928720 0.365986 0.006276 0.930599 
9.996563 -1.791618 16.924700 0.217844 0.121384 0.968406 
10.065890 -1.753332 16.895929 0.673819 0.472206 0.568321 
10.068490 -1.770915 16.778891 0.772325 0.541301 0.332426 
10.110170 -1.755782 16.713520 0.660522 0.553283 0.507532 
10.150260 -1.741987 16.646030 0.374626 0.531403 0.759780 
10.217530 -1.705420 16.614559 0.647039 0.324151 0.690121 
10.243620 -1.703351 16.528500 0.877861 0.279671 0.388773 
10.293770 -1.681131 16.474319 0.750716 0.458081 0.476012 
10.304780 -1.691709 16.368191 0.544850 0.507086 0.667834 
10.380010 -1.648478 16.347281 0.136625 0.300169 0.944051 
10.465150 -1.596926 16.339590 0.188609 0.631770 0.751860 
10.503290 -1.584771 16.269461 0.588529 0.568258 0.575080 
10.554990 -1.561248 16.217350 0.805425 0.350562 0.477909 
10.574820 -1.564453 16.122829 0.671843 0.384852 0.632863 
10.641280 -1.528556 16.090349 0.707530 0.456361 0.539570 
10.651010 -1.540242 15.982310 0.477252 0.650234 0.591123 
10.724480 -1.498465 15.959180 0.374591 0.476687 0.795268 
10.772330 -1.478173 15.901920 0.075842 0.468259 0.880330 
10.873240 -1.413367 15.915430 -0.136519 0.309127 0.941171 
10.957620 -1.362423 15.906950 0.124076 0.690098 0.713001 
10.992200 -1.353261 15.832020 0.708004 0.638055 0.302682 
11.015730 -1.353382 15.742290 0.886031 0.440525 0.144520 
11.023360 -1.366861 15.631270 0.691361 0.367231 0.622223 
11.105400 -1.317865 15.619720 0.547413 0.430486 0.717649 
11.131710 -1.315669 15.533630 0.539893 0.578407 0.611524 
11.187490 -1.288720 15.486970 0.604900 0.519730 0.603305 
11.225050 -1.277077 15.415910 0.676235 0.636232 0.371369 
11.245570 -1.279760 15.321980 0.765159 0.570440 0.298545 
11.281980 -1.269091 15.249320 0.629951 0.480132 0.610439 
11.341390 -1.239094 15.207510 0.347859 0.493957 0.796869 
11.404730 -1.205806 15.170970 0.191714 0.652442 0.733189 
11.441910 -1.194489 15.099330 0.523263 0.320211 0.789722 
11.519910 -1.148870 15.082510 0.523900 0.153356 0.837861 
11.561200 -1.134105 15.016380 0.639626 0.075608 0.764959 
11.638470 -1.089090 14.998630 0.489054 -0.037983 0.871426 
11.699860 -1.057423 14.959550 0.816617 0.166876 0.552530 
11.717710 -1.062372 14.861860 0.694833 0.302655 0.652386 
11.780250 -1.029740 14.824320 0.651835 0.553514 0.518395 
11.783630 -1.046875 14.707070 0.633108 0.629696 0.450175 
11.840650 -1.018883 14.662080 0.656288 0.426719 0.622252 
11.883120 -1.003143 14.597470 0.374773 0.228510 0.898514 
11.972830 -0.947642 14.596610 0.259668 0.099042 0.960606 
12.026500 -0.922462 14.547140 0.373984 0.375729 0.847917 
12.094240 -0.885443 14.516680 0.175220 0.392465 0.902923 
12.175350 -0.837160 14.504320 0.535787 0.465584 0.704389 
12.197480 -0.838543 14.412220 0.745983 0.463700 0.478008 
12.248880 -0.815277 14.359700 0.723092 0.495335 0.481436 
12.266810 -0.820203 14.261850 0.735556 0.545040 0.402355 
12.321670 -0.794025 14.214000 0.041383 0.623697 0.780570 
12.392130 -0.754704 14.187280 0.214010 0.590417 0.778208 
12.446180 -0.729207 14.138350 0.746271 0.443560 0.496321 
12.472750 -0.726869 14.052130 0.703424 0.594494 0.389579 
12.506720 -0.718296 13.975930 0.540789 0.632040 0.555043 
12.559270 -0.694065 13.924940 0.186749 0.714515 0.674235 
12.612300 -0.669428 13.874600 0.472925 0.556570 0.683060 
12.675520 -0.636197 13.838120 0.672409 0.440750 0.594648 
12.695470 -0.639458 13.742800 0.562340 0.409093 0.718621 
12.766430 -0.599706 13.716840 0.625914 0.481500 0.613506 
12.780570 -0.607875 13.613560 0.674303 0.605354 0.422920 
12.840660 -0.577282 13.572830 0.408549 0.592153 0.694581 
12.888560 -0.556982 13.515480 0.130813 0.382422 0.914681 
12.987630 -0.493493 13.527920 0.365501 0.245932 0.897734 
13.028850 -0.478822 13.461500 0.698716 0.518257 0.493158 
13.068160 -0.465762 13.392450 0.668648 0.730543 0.138624 
13.048330 -0.502639 13.242610 0.501275 0.847342 0.175315 
13.096830 -0.481838 13.186040 0.273079 0.831748 0.483346 
13.147840 -0.458912 13.132910 0.271072 0.713353 0.646257 
13.198690 -0.436127 13.079550 0.237949 0.386851 0.890913 
13.283490 -0.384663 13.072660 0.543104 0.251773 0.801030 
13.320630 -0.373454 13.000550 0.520039 0.199603 0.830493 
13.394570 -0.331151 12.978850 0.677682 0.139615 0.721980 
13.433090 -0.318781 12.908620 0.726266 0.357989 0.586840 
13.482910 -0.296859 12.853870 0.647918 0.435619 0.624851 
13.524230 -0.282125 12.787460 0.372985 0.601037 0.706850 
13.587020 -0.249238 12.750510 0.707735 0.320100 0.629799 
13.611400 -0.248828 12.660820 0.801627 0.334639 0.495390 
13.648970 -0.237267 12.589220 0.724548 0.414020 0.551015 
13.699610 -0.214658 12.535570 0.824704 0.270154 0.496870 
13.738490 -0.202003 12.465730 0.510872 0.380471 0.770877 
13.800950 -0.169392 12.428350 0.419680 0.448900 0.788896 
13.855170 -0.143754 12.379630 -0.000020 0.495797 0.868438 
13.935280 -0.096214 12.366560 0.541394 0.535153 0.648462 
13.957520 -0.097638 12.273780 0.535084 0.602922 0.591752 
14.017790 -0.066878 12.233420 0.495227 0.626409 0.601965 
14.062390 -0.049382 12.171430 0.569739 0.703616 0.424643 
14.090640 -0.045724 12.086880 0.766940 0.496240 0.406877 
14.120410 -0.040791 12.004390 0.665369 0.307958 0.680034 
14.191940 -0.000499 11.979570 0.268207 0.280027 0.921765 
14.250040 0.028428 11.936220 0.594537 0.351000 0.723412 
14.293390 0.044857 11.872470 0.486898 0.334576 0.806839 
14.365190 0.085387 11.848080 0.439886 0.406807 0.800630 
14.411510 0.104334 11.788440 0.378509 0.473872 0.795095 
14.485670 0.146877 11.767380 0.539900 0.526569 0.656684 
14.500430 0.139075 11.664000 0.519447 0.647815 0.557236 
14.569770 0.177534 11.636260 0.513039 0.589677 0.623756 
14.594280 0.177979 11.546330 0.736464 0.293258 0.609606 
14.666770 0.219114 11.523000 0.240174 0.325337 0.914589 
14.731880 0.253993 11.489440 0.383193 0.567336 0.728898 
14.767540 0.263896 11.414970 0.321291 0.633315 0.704048 
14.846830 0.310804 11.401140 0.296066 0.824892 0.481558 
14.845160 0.289032 11.274720 0.666555 0.740498 0.085835 
14.881230 0.299269 11.200760 0.442911 0.828409 0.342882 
14.910480 0.303721 11.117280 0.518946 0.510097 0.685928 
14.985210 0.346761 11.097130 -0.006760 0.286119 0.958170 
15.068090 0.396738 11.088400 0.383932 0.257494 0.886732 
15.115370 0.416486 11.030030 0.681506 0.391980 0.617981 
15.160970 0.434813 10.969330 0.737743 0.581825 0.342367 
15.175430 0.426692 10.865140 0.652472 0.431255 0.623136 
15.236390 0.458053 10.825840 0.322237 0.394368 0.860603 
15.296370 0.488585 10.785200 0.579812 0.457819 0.673959 
15.335210 0.501158 10.715000 0.938744 0.315838 0.137860 
15.329450 0.475840 10.582400 0.916352 0.400290 0.008136 
15.334680 0.459839 10.465090 0.787187 0.072404 0.612449 
15.419950 0.511856 10.459800 -0.037588 -0.113544 0.992822 
15.526050 0.581593 10.483770 0.136279 -0.191428 0.972000 
15.596830 0.621314 10.458290 0.673245 -0.226228 0.703962 
15.651730 0.647541 10.410580 0.799243 0.171856 0.575913 
15.676800 0.648390 10.320990 0.846701 0.496865 0.190325 
15.695820 0.644090 10.222870 0.732805 0.673587 0.096316 
15.708730 0.634594 10.116130 0.559238 0.696095 0.450228 
15.764540 0.661579 10.069630 0.669735 0.575797 0.468949 
15.783580 0.657280 9.971425 0.558373 0.391198 0.731562 
15.871350 0.711463 9.969881 0.379723 0.230083 0.896032 
15.919960 0.732324 9.913260 0.247937 0.568528 0.784413 
15.980680 0.763493 9.873692 0.505528 0.696989 0.508574 
16.015730 0.772807 9.797959 0.421102 0.814343 0.399397 
16.052280 0.783398 9.724324 0.703107 0.502020 0.503604 
16.099470 0.803040 9.665666 0.825586 0.207600 0.524700 
16.133591 0.811553 9.588561 0.671657 0.095264 0.734712 
16.202940 0.850080 9.561194 0.688090 0.046480 0.724136 
16.237379 0.858863 9.484520 0.481369 0.257610 0.837807 
16.323620 0.911778 9.481042 0.529672 0.491020 0.691626 
16.336540 0.902217 9.373916 0.805379 0.359448 0.471341 
16.389820 0.927052 9.323854 0.639957 0.279386 0.715820 
16.430880 0.941464 9.256484 0.538535 0.034675 0.841889 
16.529850 1.005251 9.271136 0.021853 -0.060537 0.997927 
16.609489 1.052562 9.258455 0.438527 0.417056 0.796089 
16.648800 1.065495 9.188644 0.136652 0.730418 0.669190 
16.726959 1.111555 9.173922 0.501883 0.708372 0.496309 
16.718269 1.083535 9.035964 0.394775 0.755306 0.523131 
16.800390 1.132974 9.026876 0.348085 0.743895 0.570488 
16.830179 1.137774 8.943490 0.211230 0.866438 0.452402 
16.889990 1.168183 8.902740 0.324144 0.792052 0.517286 
16.919250 1.172518 8.818549 0.628268 0.607271 0.486314 
16.959660 1.186365 8.750191 0.533080 0.256018 0.806400 
17.036530 1.231340 8.733734 0.631248 -0.183214 0.753630 
17.094589 1.260260 8.690518 0.477971 -0.051892 0.876841 
17.167219 1.301623 8.668077 0.689123 0.328330 0.645994 
17.173830 1.286609 8.551535 0.716058 0.612231 0.335313 
17.218121 1.303763 8.488669 0.720830 0.601126 0.345039 
17.240561 1.302249 8.394608 0.592815 0.651523 0.473379 
17.290899 1.324577 8.340365 0.563949 0.410912 0.716319 
17.346550 1.351431 8.293688 0.385754 0.270408 0.882085 
17.420309 1.393768 8.272915 0.529827 0.496387 0.687665 
17.442650 1.392156 8.178625 0.637521 0.630103 0.443326 
17.487270 1.409585 8.116179 0.452633 0.690819 0.563819 
17.534439 1.429193 8.057372 0.308610 0.566367 0.764191 
17.604879 1.468705 8.031905 0.195002 0.281661 0.939490 
17.668221 1.502145 7.996283 0.884229 0.026036 0.466328 
17.688730 1.498945 7.899249 0.932930 0.322608 0.159892 
17.688219 1.477760 7.772020 0.811435 0.462121 0.357796 
17.746170 1.506577 7.728623 0.707283 0.467206 0.530537 
17.758579 1.496431 7.619841 0.637540 0.440191 0.632277 
17.833170 1.539494 7.600352 0.228302 0.402157 0.886650 
17.896681 1.573079 7.564968 0.300555 0.383284 0.873361 
17.955811 1.602919 7.523306 0.022496 0.220587 0.975108 
18.062040 1.673087 7.549436 0.131121 0.228206 0.964743 
18.118200 1.700392 7.503555 0.277625 0.250798 0.927375 
7.225336 -3.104136 19.961710 -0.109557 0.280573 0.953560 
7.313157 -3.050572 19.956039 0.152121 0.453650 0.878101 
7.370818 -3.022085 19.911631 0.641625 0.657259 0.395383 
7.355239 -3.054518 19.772970 0.774363 0.523422 0.355517 
7.408820 -3.029431 19.723280 0.500999 0.473394 0.724499 
7.464915 -3.002250 19.676830 0.184629 0.324144 0.927816 
7.562633 -2.940432 19.684031 0.279058 0.302480 0.911390 
7.608121 -2.922072 19.623940 0.551742 0.407937 0.727439 
7.663324 -2.895628 19.576380 0.710486 0.321816 0.625814 
7.704204 -2.881105 19.510330 0.798027 0.351775 0.489294 
7.733293 -2.876402 19.429050 0.510353 0.309498 0.802341 
7.822059 -2.822012 19.424850 0.578218 0.271507 0.769382 
7.847855 -2.820054 19.339291 0.825089 0.317008 0.467691 
7.890013 -2.804473 19.274860 0.678562 0.463073 0.570190 
7.923790 -2.795876 19.199579 0.773775 0.190999 0.603980 
7.986561 -2.763127 19.161810 0.444476 0.069170 0.893116 
8.052362 -2.727850 19.127991 0.682446 0.184647 0.707229 
8.092005 -2.714370 19.060280 0.832479 0.398074 0.385378 
8.114897 -2.714853 18.970831 0.747239 0.584658 0.315926 
8.143872 -2.710270 18.889250 0.370895 0.542358 0.753847 
8.231523 -2.656778 18.883789 0.417331 0.467142 0.779496 
8.266352 -2.647317 18.809790 0.270374 0.540357 0.796814 
8.351550 -2.595859 18.801210 0.639641 0.525184 0.561285 
8.341875 -2.623516 18.669340 0.688933 0.479693 0.543384 
8.415113 -2.582030 18.645241 0.213321 0.293266 0.931928 
8.486438 -2.542135 18.618670 0.367520 0.316509 0.874501 
8.545277 -2.512652 18.575871 0.254412 0.261847 0.930973 
8.621194 -2.468917 18.555340 0.514464 0.155750 0.843249 
8.665234 -2.451778 18.493290 0.744118 0.314638 0.589314 
8.702190 -2.440554 18.421989 0.834177 0.425932 0.350329 
8.728962 -2.437834 18.337391 0.793418 0.466735 0.390700 
8.771264 -2.422154 18.273029 0.514926 0.319411 0.795505 
8.843910 -2.381139 18.248289 0.681247 0.286129 0.673819 
8.876854 -2.373275 18.171690 0.403069 0.622245 0.671078 
8.943293 -2.337440 18.138870 0.298028 0.820932 0.487083 
8.953627 -2.348464 18.032681 0.344997 0.805826 0.481271 
9.018296 -2.314107 17.997540 0.258925 0.676803 0.689127 
9.072433 -2.288546 17.948629 0.260668 0.745888 0.612946 
9.113659 -2.273773 17.882820 0.769984 0.543571 0.334149 
9.136934 -2.274004 17.793461 0.816443 0.429583 0.385849 
9.179583 -2.258048 17.729469 0.789266 0.429458 0.438890 
9.201121 -2.259741 17.637770 0.649229 0.275982 0.708756 
9.286122 -2.208382 17.629339 0.022591 0.143145 0.989444 
9.370357 -2.157656 17.619949 0.157117 0.194059 0.968326 
9.438847 -2.120091 17.589920 0.451771 0.201166 0.869158 
9.498104 -2.090243 17.547770 0.583904 0.361382 0.726953 
9.539535 -2.075305 17.482180 0.901606 0.284035 0.326236 
9.555381 -2.081773 17.382910 0.905530 0.332591 0.263436 
9.576358 -2.083956 17.290359 0.448981 0.617952 0.645408 
9.657284 -2.035980 17.276730 0.247613 0.497174 0.831569 
9.710411 -2.011261 17.226509 0.594577 0.576743 0.560219 
9.737166 -2.008618 17.141510 0.730168 0.514339 0.449790 
9.780766 -1.991878 17.078699 0.832600 0.368569 0.413442 
9.810954 -1.986368 16.998180 0.390904 0.487146 0.780950 
9.893226 -1.937250 16.986429 0.305515 0.445463 0.841560 
9.933374 -1.923402 16.919050 0.451910 0.263554 0.852242 
10.018850 -1.871588 16.911591 0.339905 -0.085603 0.936556 
10.088460 -1.833067 16.883169 0.782825 0.148341 0.604302 
10.105620 -1.838477 16.785379 0.615586 0.584219 0.528906 
10.165960 -1.807709 16.744720 0.379260 0.730658 0.567716 
10.196200 -1.802170 16.664190 0.501068 0.569773 0.651375 
10.267980 -1.761821 16.638691 0.606862 0.531833 0.590654 
10.271280 -1.778872 16.522409 0.850644 0.307880 0.426164 
10.330920 -1.748695 16.480810 0.544055 0.452481 0.706587 
10.377940 -1.729095 16.422489 0.206193 0.737890 0.642653 
10.430140 -1.705156 16.371031 0.045804 0.560772 0.826702 
10.525890 -1.644693 16.377439 0.457767 0.573936 0.679005 
10.533570 -1.658092 16.266821 0.882260 0.300994 0.361966 
10.582240 -1.637109 16.210680 0.762793 0.366351 0.532855 
10.611790 -1.632180 16.129070 0.699399 0.320797 0.638694 
10.676720 -1.597554 16.094561 0.685992 0.350640 0.637548 
10.705570 -1.593218 16.011990 0.596631 0.508678 0.620709 
10.762490 -1.565316 15.966810 0.236563 0.463242 0.854076 
10.835270 -1.524107 15.942780 -0.129286 0.472266 0.871923 
10.916270 -1.475985 15.929760 -0.090476 0.277234 0.956533 
11.020230 -1.408576 15.947430 0.445981 0.509671 0.735755 
11.027490 -1.422365 15.836020 0.778577 0.589217 0.215964 
11.062640 -1.412747 15.761800 0.760502 0.631325 0.151872 
11.062480 -1.432786 15.640370 0.524383 0.641985 0.559355 
11.131710 -1.394536 15.611690 0.473759 0.518041 0.712170 
11.174430 -1.378564 15.547550 0.488537 0.571557 0.659284 
11.232480 -1.349707 15.503930 0.542117 0.535787 0.647334 
11.272620 -1.335904 15.436320 0.686309 0.603083 0.406536 
11.305830 -1.327931 15.359410 0.826104 0.517496 0.223048 
11.318920 -1.336877 15.255490 0.681994 0.382816 0.623166 
11.385510 -1.300843 15.223300 0.163960 0.325695 0.931150 
11.465830 -1.253262 15.209570 0.335134 0.604214 0.722918 
11.495270 -1.248462 15.127550 0.455907 0.572545 0.681426 
11.566630 -1.208414 15.101810 0.591545 0.405805 0.696704 
11.591480 -1.207484 15.013580 0.809739 0.106111 0.577116 
11.652220 -1.176359 14.973600 0.699768 -0.079579 0.709924 
11.690460 -1.164173 14.903340 0.804706 -0.062468 0.590377 
11.753880 -1.130798 14.866970 0.157467 0.312678 0.936716 
11.824190 -1.091614 14.839900 0.429275 0.705865 0.563451 
11.849910 -1.089966 14.752760 0.622598 0.749802 0.223983 
11.872290 -1.091140 14.661070 0.637097 0.624227 0.452160 
11.921300 -1.069888 14.605280 0.192980 0.463331 0.864918 
12.015270 -1.010777 14.610190 -0.074007 0.301276 0.950661 
12.103210 -0.956739 14.607000 0.358415 0.510645 0.781524 
12.132430 -0.952154 14.524510 0.547701 0.321677 0.772365 
12.210540 -0.906382 14.508100 0.740958 0.170527 0.649540 
12.221330 -0.917335 14.400650 0.711822 0.268702 0.648929 
12.292740 -0.877211 14.375190 0.725865 0.366726 0.581921 
12.294870 -0.895469 14.255960 0.617022 0.393901 0.681268 
12.389800 -0.835513 14.262380 0.315737 0.336692 0.887101 
12.431550 -0.820385 14.196770 0.819065 0.192002 0.540617 
12.468860 -0.808998 14.125140 0.717902 0.331936 0.611911 
12.515580 -0.789683 14.066240 0.742350 0.394688 0.541422 
12.562060 -0.770564 14.007030 0.166746 0.542508 0.823335 
12.644270 -0.721311 13.996340 0.447396 0.665260 0.597717 
12.647690 -0.738526 13.878600 0.807794 0.457229 0.372035 
12.691140 -0.721971 13.815240 0.654680 0.454217 0.604219 
12.742380 -0.698848 13.762460 0.469170 0.347200 0.811992 
12.814700 -0.657934 13.738370 0.602293 0.449405 0.659756 
12.830300 -0.664893 13.637070 0.771125 0.514699 0.374767 
12.872750 -0.649184 13.572310 0.579971 0.441595 0.684564 
12.926350 -0.624075 13.522730 0.502398 0.060992 0.862482 
13.005080 -0.577737 13.507430 0.451976 -0.136478 0.881528 
13.070740 -0.542426 13.474350 0.663392 0.212247 0.717539 
13.102010 -0.536171 13.394320 0.816728 0.502791 0.283121 
13.128550 -0.533915 13.307800 0.553201 0.796466 0.244154 
13.157230 -0.529854 13.224170 0.622920 0.678726 0.388975 
13.198120 -0.515474 13.157220 0.407895 0.689115 0.598951 
13.249210 -0.492484 13.104200 0.406463 0.487609 0.772674 
13.309210 -0.461960 13.063380 0.668301 0.234485 0.705968 
13.352410 -0.445643 12.999550 0.464915 0.253995 0.848139 
13.429170 -0.400946 12.981710 0.628698 0.250424 0.736224 
13.452930 -0.401059 12.891240 0.649083 0.352392 0.674174 
13.522250 -0.362647 12.863230 0.304788 0.532752 0.789480 
13.569590 -0.342830 12.805070 0.677746 0.545129 0.493452 
13.593360 -0.342949 12.714550 0.615673 0.483863 0.621951 
13.664820 -0.302724 12.689500 0.474936 0.605967 0.638154 
13.695620 -0.296899 12.608600 0.859425 0.443019 0.255191 
13.701660 -0.312040 12.493620 0.702582 0.350675 0.619197 
13.775560 -0.269747 12.471940 0.204748 0.425107 0.881681 
13.830350 -0.243624 12.424000 0.172971 0.492841 0.852754 
13.919180 -0.188682 12.422940 0.163474 0.479201 0.862347 
13.970680 -0.165342 12.370490 0.536937 0.592610 0.600426 
14.010900 -0.151559 12.302480 0.679024 0.476502 0.558456 
14.064400 -0.126529 12.252780 0.697658 0.370567 0.613150 
14.089110 -0.125884 12.163350 0.696935 0.555639 0.453372 
14.135210 -0.107121 12.103430 0.574821 0.721003 0.386958 
14.158140 -0.107994 12.011480 0.331023 0.703397 0.629012 
14.235170 -0.063031 11.994270 0.240556 0.508293 0.826905 
14.297170 -0.030797 11.956310 0.357106 0.595370 0.719729 
14.340090 -0.014733 11.891970 0.261620 0.614362 0.744388 
14.414380 0.027929 11.871060 0.413366 0.558089 0.719490 
14.449330 0.037233 11.795680 0.358881 0.550080 0.754067 
14.523670 0.079937 11.774860 0.508656 0.523391 0.683616 
14.563160 0.093084 11.705740 0.746705 0.410755 0.523175 
14.606790 0.109744 11.642360 0.872234 0.232365 0.430365 
14.617550 0.098523 11.533370 0.598868 0.421150 0.681168 
14.689190 0.138938 11.508830 0.176889 0.223144 0.958602 
14.772310 0.189109 11.500280 0.245008 0.475288 0.845028 
14.820620 0.209738 11.443390 0.217606 0.502526 0.836729 
14.906560 0.262315 11.438840 0.596529 0.526489 0.605774 
14.891530 0.229167 11.293820 0.598688 0.758798 0.256511 
14.944750 0.253961 11.243740 0.576426 0.759126 0.302425 
14.943870 0.232816 11.118300 0.487928 0.580201 0.652146 
15.039510 0.293628 11.127290 0.148556 0.374637 0.915193 
15.085740 0.312491 11.067470 0.686453 0.063619 0.724386 
15.158860 0.354193 11.045150 0.659761 0.174294 0.730983 
15.179260 0.351099 10.949260 0.911894 0.247340 0.327524 
15.217320 0.363009 10.878000 0.257402 0.554167 0.791608 
15.302950 0.415341 10.873180 0.315528 0.581164 0.750127 
15.338460 0.425087 10.798360 0.691331 0.604700 0.395473 
15.365180 0.427353 10.711210 0.763010 0.642491 0.070854 
15.369840 0.410853 10.593160 0.844023 0.522152 -0.122402 
15.358110 0.380403 10.452090 0.655066 0.364733 0.661709 
15.449250 0.437440 10.455040 0.046069 -0.168699 0.984590 
15.553400 0.505546 10.476270 0.392570 -0.159484 0.905789 
15.595790 0.521120 10.410980 0.608934 -0.174624 0.773761 
15.680360 0.572584 10.404850 0.508646 0.194526 0.838713 
15.718190 0.584282 10.333170 0.761762 0.524898 0.379738 
15.748370 0.589462 10.250710 0.653787 0.725043 0.216507 
15.766580 0.584455 10.151420 0.389351 0.868239 0.307519 
15.809550 0.600509 10.086870 0.661613 0.716026 0.222654 
15.825410 0.593485 9.984193 0.481806 0.596601 0.641818 
15.896530 0.633513 9.959230 0.071332 0.301994 0.950637 
15.998100 0.699475 9.977165 0.334822 0.499715 0.798861 
16.026899 0.703462 9.892656 0.575318 0.598006 0.558031 
16.086349 0.733558 9.851320 0.695410 0.573383 0.433170 
16.082060 0.709341 9.720103 0.880368 0.364147 0.303890 
16.121700 0.722556 9.650801 0.875973 0.209249 0.434611 
16.157810 0.732755 9.576492 0.533881 0.268193 0.801900 
16.226610 0.770817 9.548332 0.425302 0.286109 0.858638 
16.287439 0.802083 9.508926 0.342609 0.221052 0.913102 
16.358431 0.842022 9.483913 0.749078 0.235581 0.619180 
16.367020 0.828745 9.370647 0.758411 0.313962 0.571174 
16.436880 0.867715 9.344035 0.554472 0.464957 0.690199 
16.454571 0.862195 9.243587 0.446380 0.388556 0.806083 
16.560711 0.932120 9.268392 -0.132424 0.025533 0.990864 
16.661190 0.997232 9.285258 0.239084 0.374426 0.895904 
16.708229 1.016753 9.226410 0.534288 0.397308 0.746112 
16.764259 1.043945 9.180310 0.772741 0.326953 0.544034 
16.799129 1.053067 9.104163 0.581335 0.561286 0.589073 
16.845501 1.072015 9.044347 0.607603 0.504591 0.613357 
16.889740 1.089134 8.981483 0.296927 0.729775 0.615843 
16.941059 1.112306 8.928686 0.379464 0.795065 0.473160 
16.978060 1.123242 8.855512 0.490351 0.818540 0.299246 
17.006680 1.127011 8.770379 0.751303 0.567031 0.337668 
17.028370 1.124865 8.675363 0.855349 -0.119722 0.504029 
17.102079 1.167155 8.654412 0.288847 -0.258593 0.921790 
17.189489 1.221162 8.653029 0.624957 0.070679 0.777453 
17.226139 1.231788 8.579294 0.761162 0.459338 0.457866 
17.257500 1.237889 8.497991 0.759643 0.529032 0.378244 
17.292240 1.246875 8.421483 0.580834 0.709072 0.399812 
17.322340 1.251885 8.338315 0.584678 0.578225 0.569041 
17.378120 1.278858 8.291829 0.390298 0.300665 0.870212 
17.452320 1.321587 8.271691 0.512267 0.355120 0.781967 
17.493420 1.336005 8.204226 0.389050 0.652694 0.650101 
17.556240 1.369006 8.167845 0.326854 0.778903 0.535235 
17.579889 1.368484 8.075363 0.364192 0.700298 0.613960 
17.653709 1.410901 8.054750 0.599902 0.506419 0.619400 
17.652000 1.388671 7.925877 0.797988 0.164964 0.579656 
17.734949 1.438896 7.918355 0.703715 0.355914 0.614907 
17.713570 1.399814 7.761165 0.798907 0.382278 0.464340 
17.776199 1.432645 7.724486 0.675932 0.478195 0.560755 
17.794050 1.427134 7.623501 0.594280 0.470100 0.652562 
17.867430 1.469174 7.602276 0.328726 0.323960 0.887124 
17.916451 1.490347 7.546046 0.334571 0.345543 0.876734 
18.002020 1.542838 7.542406 -0.081027 0.196816 0.977087 
18.086941 1.594782 7.537885 0.128796 0.114427 0.985047 
18.162270 1.638515 7.519601 0.283755 0.196303 0.938588 
7.275222 -3.161034 19.984720 0.041390 0.151265 0.987626 
7.357087 -3.112405 19.971411 0.321872 0.246845 0.914038 
7.411291 -3.086791 19.922550 0.811877 0.431883 0.392852 
7.415847 -3.102501 19.809799 0.592050 0.755013 0.281839 
7.456943 -3.087802 19.744040 0.610535 0.552874 0.567077 
7.506176 -3.066331 19.688761 0.311142 0.250474 0.916762 
7.594071 -3.012667 19.683300 0.402863 0.065826 0.912890 
7.652174 -2.983806 19.639481 0.710627 0.200892 0.674278 
7.681662 -2.978776 19.558741 0.728016 0.288856 0.621735 
7.733851 -2.954840 19.507280 0.693227 0.415754 0.588715 
7.772560 -2.942135 19.438410 0.533476 0.349551 0.770206 
7.837443 -2.907624 19.403351 0.659110 0.246097 0.710641 
7.874893 -2.895970 19.332840 0.704665 0.252077 0.663253 
7.944372 -2.857625 19.303749 0.675313 0.406348 0.615495 
7.944720 -2.876901 19.185200 0.768947 0.266213 0.581250 
8.017057 -2.836172 19.159809 0.435051 0.120208 0.892346 
8.072721 -2.809340 19.112850 0.656791 0.197870 0.727649 
8.119746 -2.789712 19.054689 0.777347 0.312581 0.545916 
8.161269 -2.774673 18.989401 0.612846 0.552754 0.564697 
8.206805 -2.756289 18.929300 0.425584 0.483515 0.764913 
8.267810 -2.725002 18.889271 0.322329 0.377306 0.868184 
8.339539 -2.684765 18.863190 0.362937 0.412650 0.835462 
8.385711 -2.665848 18.803930 0.805712 0.454215 0.380155 
8.399500 -2.673958 18.702551 0.532938 0.704421 0.468795 
8.453758 -2.648298 18.653770 0.359635 0.409168 0.838597 
8.522797 -2.610300 18.624229 0.542491 0.163047 0.824086 
8.574598 -2.586688 18.572269 0.495673 -0.007233 0.868479 
8.652908 -2.540942 18.554859 0.390280 0.158232 0.906997 
8.707661 -2.514863 18.506760 0.470136 0.545157 0.694101 
8.751840 -2.497614 18.444880 0.738485 0.586970 0.331822 
8.767517 -2.504173 18.345810 0.659949 0.676286 0.327269 
8.803093 -2.494117 18.272659 0.585148 0.552728 0.593375 
8.852162 -2.472789 18.217119 0.432722 0.491570 0.755718 
8.916916 -2.438357 18.182079 0.037449 0.559837 0.827756 
9.002137 -2.386816 18.173809 0.257164 0.739226 0.622424 
9.034226 -2.379678 18.096090 0.304989 0.852840 0.423846 
9.083223 -2.358409 18.040470 0.294046 0.699390 0.651453 
9.145853 -2.325742 18.002701 0.507119 0.668647 0.543821 
9.165448 -2.329058 17.908560 0.845460 0.518620 0.127402 
9.181800 -2.335093 17.810129 0.833264 0.417135 0.362864 
9.228065 -2.316116 17.750879 0.691949 0.567540 0.446212 
9.243659 -2.322797 17.651381 0.327001 0.684437 0.651626 
9.327127 -2.272701 17.640949 0.063788 0.325776 0.943293 
9.408680 -2.224201 17.628050 0.348387 0.176222 0.920637 
9.461436 -2.199792 17.577339 0.600143 0.013332 0.799782 
9.531863 -2.160592 17.549870 0.770233 0.088877 0.631540 
9.529536 -2.182288 17.426710 0.763371 0.356615 0.538601 
9.596500 -2.145988 17.394680 0.504403 0.530732 0.681102 
9.638952 -2.130206 17.330400 0.377237 0.638748 0.670591 
9.689760 -2.107430 17.277109 0.414132 0.481175 0.772635 
9.752524 -2.074641 17.239590 0.451393 0.688171 0.568037 
9.777357 -2.073621 17.152050 0.779637 0.571888 0.255169 
9.804732 -2.070476 17.067829 0.524397 0.671392 0.523679 
9.861921 -2.042358 17.022949 0.332372 0.472296 0.816374 
9.936409 -1.999744 17.000919 0.501951 0.314067 0.805858 
9.977053 -1.985487 16.934191 0.651551 0.240263 0.719552 
10.031810 -1.959403 16.886120 0.290479 0.144870 0.945851 
10.112930 -1.911215 16.872931 0.507758 0.341799 0.790795 
10.158090 -1.893180 16.812170 0.457283 0.473654 0.752692 
10.224370 -1.857423 16.779400 0.629467 0.502353 0.592800 
10.236430 -1.867138 16.674789 0.577037 0.523808 0.626621 
10.305750 -1.828842 16.646030 0.781070 0.394139 0.484339 
10.297030 -1.855998 16.513790 0.694706 0.451242 0.560147 
10.368990 -1.815482 16.488541 0.199079 0.410983 0.889641 
10.437370 -1.777968 16.458561 0.140486 0.629401 0.764277 
10.492850 -1.751272 16.411480 0.126047 0.573332 0.809569 
10.560790 -1.714116 16.380960 0.765319 0.413336 0.493396 
10.558650 -1.735790 16.257259 0.827363 0.314377 0.465443 
10.623300 -1.701394 16.222370 0.721280 0.343313 0.601574 
10.636780 -1.709963 16.119381 0.793875 0.173352 0.582847 
10.705750 -1.671948 16.090231 0.527111 0.370128 0.764957 
10.739670 -1.663362 16.014400 0.417809 0.558294 0.716759 
10.818870 -1.616744 15.998930 -0.010781 0.434071 0.900814 
10.896120 -1.571764 15.980880 0.239927 0.253870 0.937009 
