-22.914930 -8.013471 56.377510 0.404768 0.133703 0.904592 
-22.839260 -7.972224 56.348740 0.526650 0.239407 0.815674 
-22.800159 -7.957904 56.285969 0.602926 0.283257 0.745819 
-22.725500 -7.917401 56.256290 0.413403 0.310488 0.855976 
-22.674231 -7.894120 56.204861 0.653710 0.474300 0.589664 
-22.641930 -7.884811 56.135738 0.558805 0.499837 0.661740 
-22.583611 -7.856330 56.090889 0.458887 0.334830 0.822990 
-22.524380 -7.827185 56.046879 0.605772 0.591066 0.532617 
-22.510250 -7.831264 55.960789 0.571908 0.546291 0.611954 
-22.433359 -7.789104 55.933281 0.543086 0.460767 0.701962 
-22.408680 -7.785416 55.857010 0.815305 0.459527 0.352296 
-22.378090 -7.777366 55.786251 0.775580 0.361421 0.517543 
-22.333929 -7.759323 55.728161 0.783301 0.490242 0.382234 
-22.315241 -7.760063 55.646229 0.777286 0.585023 0.231461 
-22.285379 -7.752561 55.574749 0.780670 0.616693 0.101213 
-22.304291 -7.781025 55.457550 0.928339 0.370895 -0.024989 
-22.283039 -7.779879 55.377930 0.928405 0.371050 0.019651 
-22.300140 -7.807019 55.262329 0.939890 0.319880 0.119517 
-22.261990 -7.793422 55.198502 0.839580 0.445606 0.310709 
-22.260839 -7.807119 55.099930 0.688158 0.343581 0.639055 
-22.167370 -7.752726 55.088009 0.124241 0.102201 0.986975 
-22.083740 -7.705587 55.066891 0.456848 -0.031919 0.888972 
-22.028080 -7.679070 55.019508 0.432359 -0.072727 0.898764 
-21.930849 -7.621888 55.011238 0.063920 -0.012230 0.997880 
-21.824989 -7.558331 55.011131 0.170083 -0.030913 0.984945 
-21.741640 -7.511377 54.989880 0.678987 0.094581 0.728032 
-21.717461 -7.508083 54.912941 0.818257 0.106836 0.564838 
-21.668079 -7.486192 54.859730 0.931775 0.051413 0.359378 
-21.669390 -7.501723 54.758709 0.999768 -0.014937 -0.015532 
-21.664000 -7.512311 54.663979 0.991415 0.106477 0.075890 
-21.675070 -7.535053 54.553669 0.998629 -0.012665 0.050782 
-21.650061 -7.531169 54.477379 0.985233 0.068709 0.156831 
-21.646280 -7.542961 54.381001 0.976439 0.159546 0.145301 
-21.621870 -7.539528 54.304081 0.941470 0.271721 0.199504 
-21.611389 -7.546382 54.213970 0.628513 0.659104 0.412980 
-21.564180 -7.526121 54.158569 0.318608 0.523179 0.790426 
-21.479250 -7.477986 54.138889 0.280419 0.487825 0.826675 
-21.432510 -7.458065 54.083061 0.622476 0.506726 0.596450 
-21.388050 -7.439823 54.025082 0.211698 0.512583 0.832132 
-21.306400 -7.394104 54.002350 0.597626 0.506004 0.621935 
-21.286909 -7.394317 53.920700 0.810967 0.405164 0.422107 
-21.242720 -7.376274 53.862461 0.712668 0.377236 0.591437 
-21.206310 -7.363992 53.796810 0.772110 0.491088 0.403336 
-21.185499 -7.363235 53.716351 0.548016 0.426299 0.719686 
-21.102640 -7.316610 53.694839 0.404810 0.441607 0.800695 
-21.063540 -7.302335 53.631741 0.444685 0.565072 0.694945 
-21.004250 -7.273129 53.587860 0.305852 0.442575 0.842960 
-20.925911 -7.229842 53.562099 0.583624 0.461880 0.667870 
-20.901621 -7.226515 53.484909 0.661106 0.493634 0.565034 
-20.846790 -7.200612 53.436790 0.319705 0.406182 0.856040 
-20.774509 -7.161793 53.405319 0.706525 0.516122 0.484191 
-20.782101 -7.182058 53.297691 0.621845 0.693754 0.363336 
-20.723270 -7.153196 53.253380 0.732069 0.638945 0.236272 
-20.758591 -7.193985 53.119202 0.670589 0.741004 0.034988 
-20.721640 -7.181312 53.053970 0.438797 0.865392 0.241980 
-20.705759 -7.184231 52.968601 0.500357 0.813800 0.295588 
-20.660839 -7.165671 52.910961 0.526406 0.788080 0.319103 
-20.653179 -7.174681 52.817669 0.485210 0.788148 0.378674 
-20.599001 -7.149260 52.768879 0.232844 0.615509 0.752949 
-20.522051 -7.106983 52.741901 0.325767 0.411589 0.851158 
-20.475760 -7.087405 52.685558 0.536160 0.377527 0.754988 
-20.404579 -7.049394 52.653091 0.260005 0.304906 0.916204 
-20.332529 -7.010741 52.621460 0.526769 0.256797 0.810290 
-20.291691 -6.995195 52.559921 0.662805 0.289117 0.690726 
-20.239920 -6.971551 52.508869 0.684097 0.253108 0.684067 
-20.192270 -6.950956 52.453869 0.926290 0.251204 0.280861 
-20.198231 -6.970085 52.347328 0.948126 0.228842 0.220656 
-20.168570 -6.962823 52.275002 0.974163 0.180312 0.135993 
-20.162149 -6.972787 52.180290 0.917677 0.296350 0.264660 
-20.125219 -6.960148 52.114910 0.962083 0.224521 0.154875 
-20.153061 -6.995509 51.987141 0.944457 0.273769 0.181801 
-20.114870 -6.981948 51.922920 0.919464 0.284938 0.270916 
-20.105061 -6.989422 51.831329 0.758849 0.292957 0.581657 
-20.037210 -6.953869 51.795681 0.521092 0.126255 0.844111 
-19.982910 -6.928370 51.746971 0.741228 0.265715 0.616422 
-19.949579 -6.918407 51.678040 0.561861 0.345510 0.751622 
-19.882771 -6.883626 51.641418 0.464639 0.344054 0.815928 
-19.830811 -6.859856 51.590469 0.685210 0.396265 0.611115 
-19.793011 -6.846583 51.525829 0.560744 0.343507 0.753372 
-19.722500 -6.809055 51.492821 0.679081 0.501263 0.536269 
-19.724850 -6.825571 51.389320 0.749273 0.412553 0.518063 
-19.650530 -6.785206 51.360020 0.567110 0.422222 0.707188 
-19.623091 -6.779626 51.285309 0.736738 0.511550 0.442191 
-19.587521 -6.768017 51.218472 0.414977 0.459686 0.785164 
-19.503260 -6.720277 51.198841 0.282477 0.546332 0.788498 
-19.462950 -6.705150 51.136600 0.354652 0.687853 0.633309 
-19.406130 -6.677769 51.090382 0.458280 0.487271 0.743334 
-19.347891 -6.649336 51.045540 0.758907 0.433025 0.486363 
-19.341120 -6.659101 50.950710 0.915488 0.326664 0.234887 
-19.305130 -6.647187 50.884239 0.896158 0.398988 0.194188 
-19.315809 -6.669928 50.772350 0.813499 0.539844 0.216305 
-19.269890 -6.650644 50.715500 0.742521 0.633419 0.217814 
-19.284161 -6.676056 50.600040 0.837855 0.541778 0.066905 
-19.256359 -6.670234 50.525509 0.846867 0.508355 0.156178 
-19.258169 -6.686413 50.422081 0.712270 0.467636 0.523438 
-19.187750 -6.648941 50.389050 0.408841 0.175313 0.895608 
-19.121130 -6.614287 50.352329 0.767436 0.155316 0.622028 
-19.104429 -6.616715 50.266911 0.699624 0.098623 0.707672 
-19.018270 -6.567544 50.249290 0.375223 -0.052305 0.925458 
-18.951120 -6.532487 50.213131 0.808559 -0.151298 0.568631 
-18.927999 -6.530154 50.133949 0.657049 -0.198668 0.727199 
-18.838751 -6.478672 50.119419 0.293851 -0.159306 0.942483 
-18.754160 -6.430648 50.100368 0.754227 -0.066395 0.653249 
-18.734430 -6.430835 50.017860 0.562894 0.123527 0.817246 
-18.649410 -6.382487 49.999260 0.698287 0.315962 0.642311 
-18.638540 -6.389265 49.908051 0.953093 0.290737 -0.084181 
-18.657980 -6.418591 49.787071 0.906312 0.351460 -0.234681 
-18.679670 -6.449597 49.663818 0.881339 0.469975 -0.048636 
-18.663500 -6.452459 49.577660 0.855975 0.504507 0.113046 
-18.661289 -6.465703 49.477760 0.750322 0.384318 0.537882 
-18.587900 -6.426011 49.447739 0.685823 0.197930 0.700336 
-18.571341 -6.428585 49.361900 0.890685 0.017904 0.454269 
-18.514790 -6.401414 49.315350 0.553594 0.093735 0.827495 
-18.455620 -6.372290 49.271381 0.816825 0.226417 0.530596 
-18.439260 -6.375024 49.185280 0.795396 0.232509 0.559718 
-18.377270 -6.343803 49.144100 0.349770 0.231085 0.907888 
-18.303940 -6.304135 49.114101 0.615504 0.348591 0.706852 
-18.278250 -6.299933 49.037159 0.684102 0.205884 0.699726 
-18.204300 -6.259804 49.007790 0.401430 0.082638 0.912154 
-18.142111 -6.228423 48.966862 0.625211 0.237435 0.743462 
-18.097290 -6.209975 48.908779 0.497305 0.300678 0.813806 
-18.025999 -6.171820 48.876850 0.520592 0.103300 0.847534 
-17.972870 -6.147186 48.826981 0.754049 0.084598 0.651347 
-17.929831 -6.130061 48.767159 0.717247 0.005442 0.696798 
-17.869989 -6.100427 48.723942 0.924965 0.031060 0.378781 
-17.882549 -6.124729 48.609070 0.995012 0.030044 0.095125 
-17.859421 -6.122447 48.529480 0.997147 0.060264 0.045461 
-17.869230 -6.144713 48.417229 0.961218 0.268704 -0.062110 
-17.869499 -6.159882 48.314381 0.906827 0.417734 -0.056246 
-17.876949 -6.180402 48.204361 0.882021 0.464404 0.079796 
-17.854759 -6.178845 48.123699 0.741297 0.502949 0.444434 
-17.807100 -6.158298 48.068310 0.390442 0.318911 0.863626 
-17.721041 -6.109133 48.051041 0.244971 0.053524 0.968052 
-17.647779 -6.069499 48.021111 0.576309 0.014975 0.817095 
-17.590040 -6.041430 47.975769 0.482263 0.024047 0.875696 
-17.519970 -6.004174 47.942699 0.319692 0.028254 0.947100 
-17.439011 -5.958785 47.920502 0.672307 0.242399 0.699462 
-17.422720 -5.961631 47.833920 0.723031 0.212844 0.657209 
-17.343969 -5.917888 47.809551 0.737654 0.302248 0.603749 
-17.334990 -5.926188 47.715649 0.887002 0.381995 0.259436 
-17.303970 -5.918060 47.643688 0.894159 0.358973 0.267614 
-17.300350 -5.930370 47.544380 0.936451 0.350103 0.022093 
-24.632690 -8.720781 59.207039 0.990958 0.126194 -0.045572 
-24.636480 -8.737889 59.105591 0.953938 0.170825 0.246620 
-24.602711 -8.727442 59.038280 0.911061 0.277169 0.305197 
-24.590340 -8.732697 58.951481 0.815213 0.264074 0.515454 
-24.525400 -8.699378 58.912521 0.618824 0.267511 0.738576 
-24.489830 -8.687617 58.846809 0.598206 0.532131 0.599154 
-24.445080 -8.669114 58.789471 0.414235 0.509001 0.754538 
-24.368860 -8.627510 58.760830 0.331963 0.523280 0.784843 
-24.326839 -8.611012 58.701000 0.673334 0.648385 0.355271 
-24.304779 -8.609177 58.622929 0.467748 0.672004 0.574127 
-24.237240 -8.573939 58.586399 0.617534 0.629039 0.472188 
-24.237440 -8.588449 58.487968 0.573381 0.673032 0.467185 
-24.176029 -8.557711 58.445850 0.320929 0.408288 0.854579 
-24.106501 -8.521017 58.411140 0.641152 0.413930 0.646209 
-24.087780 -8.521634 58.329971 0.528541 0.416468 0.739729 
-23.985920 -8.461180 58.324909 0.196669 0.275271 0.941035 
-23.921129 -8.427955 58.285919 0.671797 0.436256 0.598640 
-23.904329 -8.429991 58.202961 0.782704 0.457536 0.421943 
-23.865259 -8.415663 58.140400 0.758430 0.393234 0.519760 
-23.827829 -8.402543 58.076321 0.877198 0.398249 0.268183 
-23.809191 -8.403235 57.994991 0.885771 0.459688 0.064014 
-23.823999 -8.428515 57.882900 0.885661 0.446014 0.129133 
-23.795620 -8.422056 57.810452 0.715742 0.437230 0.544557 
-23.739590 -8.395271 57.763401 0.883914 0.268549 0.382854 
-23.738520 -8.408898 57.665791 0.909769 0.089076 0.405445 
-23.693300 -8.390061 57.608799 0.905865 0.050353 0.420564 
-23.676491 -8.392118 57.525631 0.744770 0.110535 0.658103 
-23.600451 -8.350628 57.496990 0.226315 0.170063 0.959093 
-23.520630 -8.306341 57.471882 0.287669 0.206850 0.935126 
-23.454189 -8.271895 57.434460 0.451169 0.185345 0.872980 
-23.388029 -8.237656 57.396790 0.261954 0.127493 0.956622 
-23.301331 -8.188306 57.378101 0.290592 0.131101 0.947823 
-23.235809 -8.154523 57.339890 0.727719 0.398938 0.557919 
-23.230709 -8.165210 57.245850 0.880498 0.385790 0.275479 
-23.192650 -8.151635 57.182259 0.866564 0.465422 0.180136 
-23.199780 -8.171330 57.076839 0.794265 0.591885 0.137166 
-23.167980 -8.162372 57.007420 0.731601 0.675065 0.095121 
-23.178221 -8.184364 56.899040 0.838966 0.523614 0.148204 
-23.139610 -8.170403 56.835869 0.824135 0.512774 0.240550 
-23.142731 -8.187165 56.734009 0.706587 0.592811 0.386406 
-23.086710 -8.160388 56.686951 0.692986 0.480366 0.537605 
-23.061930 -8.156610 56.610920 0.898357 0.322186 0.298582 
-23.041479 -8.156031 56.530842 0.700035 0.151017 0.697958 
-22.968170 -8.116522 56.499828 0.818845 0.058238 0.571052 
-22.953930 -8.120517 56.413960 0.767277 0.087422 0.635329 
-22.880699 -8.081062 56.382889 0.274652 0.109998 0.955231 
-22.797750 -8.034444 56.360901 0.510301 0.316597 0.799600 
-22.763470 -8.023679 56.293640 0.648417 0.254148 0.717610 
-22.696190 -7.988603 56.257099 0.404061 0.209920 0.890319 
-22.631109 -7.955143 56.218521 0.630158 0.395489 0.668199 
-22.600790 -7.947298 56.147560 0.704933 0.309022 0.638415 
-22.537781 -7.915359 56.107079 0.256995 0.331187 0.907892 
-22.460251 -7.872719 56.080151 0.639550 0.503736 0.580712 
-22.450020 -7.879686 55.990429 0.493318 0.629272 0.600545 
-22.379560 -7.842251 55.956921 0.590792 0.542280 0.597409 
-22.358391 -7.841156 55.877392 0.787593 0.552722 0.272389 
-22.333460 -7.837293 55.801331 0.616924 0.564994 0.547894 
-22.276140 -7.809547 55.755562 0.610950 0.662092 0.434022 
-22.272739 -7.821570 55.659328 0.746232 0.619190 0.244421 
-22.230909 -7.805250 55.599041 0.718912 0.683810 0.124776 
-22.270361 -7.848891 55.462608 0.826522 0.558181 -0.072771 
-22.250820 -7.849026 55.381378 0.790128 0.609975 -0.060244 
-22.274910 -7.881350 55.259209 0.748376 0.626235 0.218547 
-22.227600 -7.861000 55.203972 0.774104 0.567656 0.280232 
-22.221991 -7.871426 55.109581 0.625182 0.469122 0.623756 
-22.140390 -7.825776 55.086510 0.211357 0.205520 0.955557 
-22.072540 -7.790269 55.050560 0.420944 0.184806 0.888061 
-22.004930 -7.754930 55.014408 0.347461 0.028010 0.937276 
-21.912960 -7.701613 55.001179 0.165099 -0.076953 0.983270 
-21.822760 -7.649586 54.986340 0.349812 -0.176882 0.919970 
-21.747351 -7.608484 54.957600 0.674991 -0.162326 0.719748 
-21.701920 -7.589511 54.900650 0.847008 -0.050221 0.529203 
-21.672979 -7.582721 54.828159 0.982348 0.059146 0.177465 
-21.687040 -7.607689 54.715099 0.970705 0.123153 0.206315 
-21.640530 -7.587929 54.659130 0.959476 0.169812 0.224877 
-21.674841 -7.627871 54.526859 0.990100 0.046385 0.132478 
-21.632191 -7.610964 54.467209 0.958516 0.057955 0.279085 
-21.640421 -7.631659 54.359459 0.893726 0.262115 0.364075 
-21.591869 -7.610398 54.305351 0.657955 0.467153 0.590646 
-21.547871 -7.592496 54.246941 0.717273 0.500346 0.484947 
-21.516760 -7.584126 54.176319 0.526086 0.295521 0.797434 
-21.437889 -7.540454 54.150909 0.535842 0.290185 0.792884 
-21.404350 -7.530294 54.082569 0.611818 0.343899 0.712328 
-21.331869 -7.491344 54.051140 0.268421 0.411930 0.870783 
-21.279470 -7.467234 54.000690 0.752645 0.500406 0.427925 
-21.278450 -7.481116 53.901501 0.739708 0.467349 0.484167 
-21.210899 -7.445802 53.865421 0.508278 0.488056 0.709545 
-21.174789 -7.433743 53.799492 0.604477 0.636029 0.479661 
-21.132681 -7.417251 53.739250 0.308455 0.588625 0.747245 
-21.054710 -7.374223 53.713112 0.165787 0.563334 0.809425 
-20.997410 -7.346493 53.667320 0.418620 0.648245 0.636031 
-20.954510 -7.329408 53.607849 0.520291 0.454219 0.723175 
-20.900040 -7.303767 53.559380 0.716504 0.334725 0.612031 
-20.865339 -7.292751 53.492088 0.645455 0.383551 0.660512 
-20.805990 -7.263498 53.448280 0.354362 0.346615 0.868497 
-20.741711 -7.230592 53.409180 0.627584 0.562791 0.537963 
-20.723789 -7.231998 53.325878 0.711636 0.639592 0.290683 
-20.694189 -7.224759 53.253689 0.777892 0.619792 0.103639 
-20.695629 -7.240512 53.151840 0.452429 0.873031 0.182001 
-20.650339 -7.221668 53.094589 0.382048 0.902044 0.200886 
-20.648560 -7.235041 52.995750 0.328400 0.918908 0.218543 
-20.599409 -7.213340 52.942169 0.130876 0.919217 0.371365 
-20.542650 -7.186007 52.895870 0.371779 0.898775 0.232345 
-20.542971 -7.200951 52.794930 0.453332 0.748857 0.483429 
-20.466431 -7.158961 52.767570 0.349294 0.599472 0.720158 
-20.428310 -7.145436 52.703411 0.677719 0.370264 0.635296 
-20.373650 -7.119655 52.655109 0.400519 0.215607 0.890561 
-20.302271 -7.081478 52.622849 0.375387 0.388317 0.841603 
-20.250059 -7.057512 52.572208 0.618477 0.439299 0.651538 
-20.207800 -7.040918 52.512020 0.773867 0.367347 0.515933 
-20.184040 -7.038032 52.434071 0.932090 0.335268 0.137127 
-20.175261 -7.046260 52.341671 0.923285 0.341759 0.175343 
-20.150869 -7.042915 52.264271 0.993041 0.092367 0.073064 
-20.154280 -7.060190 52.160080 0.961616 0.039499 0.271541 
-20.123381 -7.052031 52.088871 0.987644 0.110293 0.111333 
-20.127541 -7.069869 51.983891 0.930548 0.282336 0.233167 
-20.092911 -7.058946 51.916241 0.911656 0.300875 0.279923 
-20.084560 -7.067526 51.823219 0.716711 0.354221 0.600710 
-20.012871 -7.029124 51.791260 0.420611 0.252086 0.871515 
-19.955950 -7.001668 51.745090 0.633181 0.306503 0.710730 
-19.907551 -6.980539 51.690689 0.437385 0.333331 0.835215 
-19.832609 -6.939719 51.661930 0.592365 0.312345 0.742661 
-19.804230 -6.933443 51.588188 0.841805 0.180863 0.508579 
-19.754629 -6.911424 51.534950 0.459924 0.251990 0.851453 
-19.687481 -6.876375 51.498699 0.762793 0.405576 0.503642 
-19.687180 -6.890941 51.397758 0.645900 0.540333 0.539308 
-19.619150 -6.855239 51.362358 0.468856 0.496717 0.730374 
-19.577240 -6.838929 51.301670 0.447544 0.705667 0.549308 
-19.531370 -6.819678 51.244820 0.109368 0.653470 0.749009 
-19.439190 -6.766035 51.232891 0.103202 0.643280 0.758644 
-19.386150 -6.741460 51.182999 0.347845 0.817197 0.459558 
-19.366011 -6.741313 51.101189 0.649130 0.580303 0.491812 
-19.309139 -6.713892 51.055019 0.809823 0.438460 0.389794 
-19.313789 -6.732164 50.949089 0.942091 0.241903 0.232267 
-19.269020 -6.713733 50.891140 0.882725 0.338891 0.325499 
-19.269911 -6.729218 50.788780 0.891145 0.402085 0.210208 
-19.235460 -6.718457 50.720772 0.831047 0.525111 0.183356 
-19.252350 -6.745850 50.602749 0.860838 0.497415 0.107413 
-19.215879 -6.733599 50.536640 0.774815 0.590516 0.225726 
-19.214880 -6.747704 50.435970 0.768391 0.507621 0.389740 
-19.163679 -6.724511 50.384190 0.531995 0.281433 0.798609 
-19.105869 -6.696395 50.338871 0.746844 0.306419 0.590196 
-19.075840 -6.688940 50.266441 0.560801 0.381550 0.734794 
-19.006121 -6.651969 50.232769 0.637881 0.183767 0.747889 
-18.978649 -6.646416 50.157810 0.848784 0.061355 0.525167 
-18.919260 -6.617126 50.114059 0.380387 0.047183 0.923623 
-18.835430 -6.569659 50.094219 0.482038 -0.062915 0.873888 
-18.785400 -6.547327 50.041328 0.565058 -0.085400 0.820620 
-18.692499 -6.493102 50.030430 0.300648 0.084666 0.949970 
-18.633369 -6.463994 49.986488 0.901086 0.037563 0.432012 
-18.636471 -6.481192 49.881550 0.994265 0.046356 -0.096377 
-18.645741 -6.502982 49.770519 0.979186 0.172027 -0.107710 
-18.658751 -6.527563 49.655762 0.944294 0.298635 0.138299 
-18.622101 -6.515196 49.589691 0.882290 0.411808 0.227989 
-18.629080 -6.535307 49.480759 0.743210 0.444701 0.499879 
-18.565809 -6.503127 49.440811 0.801962 0.307095 0.512396 
-18.558090 -6.512302 49.346260 0.720388 0.361668 0.591809 
-18.485081 -6.472878 49.315880 0.483365 0.171002 0.858555 
-18.427179 -6.444691 49.270672 0.820986 0.226893 0.523929 
-18.412170 -6.448451 49.183220 0.675136 0.295697 0.675837 
-18.330151 -6.402304 49.161770 0.356292 0.204345 0.911756 
-18.273569 -6.375104 49.115269 0.703551 0.337869 0.625188 
-18.245781 -6.369349 49.040390 0.555014 0.414938 0.720962 
-18.170759 -6.328405 49.012089 0.247823 0.289702 0.924476 
-18.098049 -6.289185 48.981529 0.580720 0.324935 0.746446 
-18.061110 -6.276611 48.915668 0.626815 0.226081 0.745647 
-17.994949 -6.242266 48.878670 0.623944 0.139389 0.768937 
-17.953800 -6.226553 48.816971 0.864271 0.013532 0.502844 
-17.917170 -6.214218 48.750778 0.728779 0.051265 0.682828 
-17.865650 -6.190783 48.699322 0.961230 0.048012 0.271535 
-17.877529 -6.214601 48.585110 0.979279 0.144251 0.142144 
-17.849310 -6.208541 48.510540 0.989612 0.091645 0.110762 
-17.849590 -6.223730 48.407711 0.953935 0.257939 0.153217 
-17.819960 -6.216626 48.334492 0.830058 0.536610 0.151836 
-17.827539 -6.237274 48.224331 0.808459 0.585365 0.061170 
-17.800079 -6.231793 48.148911 0.730918 0.584708 0.351959 
-17.773279 -6.226809 48.072800 0.485816 0.418448 0.767388 
-17.685410 -6.176269 48.057350 0.401620 0.171497 0.899605 
-17.636379 -6.154706 48.003330 0.690254 0.036410 0.722651 
-17.579981 -6.127637 47.956638 0.382186 0.040589 0.923194 
-17.485800 -6.072376 47.947552 0.139043 0.157571 0.977670 
-17.414511 -6.034194 47.915722 0.720613 0.271534 0.637954 
-17.391821 -6.032277 47.835510 0.652171 0.350581 0.672136 
-17.326139 -5.998280 47.798111 0.798854 0.253211 0.545635 
-17.311800 -6.002604 47.709530 0.921197 0.225945 0.316773 
-17.268881 -5.985592 47.649441 0.844984 0.372485 0.383741 
-17.257740 -5.992316 47.557621 0.763770 0.618568 0.184470 
-24.646940 -8.809423 59.266479 0.907326 0.384703 0.169598 
-24.630470 -8.811677 59.183479 0.981341 0.184985 0.052445 
-24.622160 -8.819926 59.093021 0.837804 0.286286 0.464892 
-24.566090 -8.793111 59.045990 0.855374 0.327099 0.401674 
-24.573059 -8.812587 58.941570 0.755649 0.317307 0.572984 
-24.494961 -8.769600 58.914589 0.305943 0.320347 0.896536 
-24.426050 -8.733359 58.879261 0.403945 0.629384 0.663856 
-24.396891 -8.726309 58.807701 0.390139 0.610989 0.688828 
-24.319000 -8.683470 58.780590 0.333223 0.564068 0.755507 
-24.276711 -8.666773 58.721020 0.546179 0.758500 0.355479 
-24.263090 -8.671141 58.635250 0.507726 0.694453 0.509852 
-24.197149 -8.637074 58.597260 0.590282 0.649729 0.478978 
-24.180780 -8.639427 58.513969 0.646397 0.614773 0.451913 
-24.126450 -8.613891 58.465370 0.361121 0.461100 0.810542 
-24.066521 -8.584239 58.421902 0.451586 0.586820 0.672096 
-24.022261 -8.566096 58.364109 0.414730 0.475982 0.775526 
-23.954809 -8.530916 58.327541 0.319986 0.227439 0.919717 
-23.883150 -8.492630 58.294849 0.637173 0.425831 0.642400 
-23.859921 -8.489955 58.217781 0.816970 0.412531 0.402961 
-23.816719 -8.472593 58.159012 0.737223 0.481583 0.473899 
-23.802959 -8.476884 58.073212 0.928335 0.334237 0.162725 
-23.781170 -8.475267 57.994759 0.889648 0.436555 0.133963 
-23.771299 -8.482429 57.905331 0.889601 0.449843 0.079058 
-23.753510 -8.483767 57.823151 0.945375 0.253186 0.205335 
-23.758739 -8.502045 57.719761 0.978607 0.103523 0.177796 
-23.725401 -8.491950 57.651821 0.839951 0.173471 0.514188 
-23.688040 -8.478904 57.587570 0.808054 0.287438 0.514225 
-23.650890 -8.466010 57.523121 0.671078 0.118229 0.731899 
-23.569460 -8.420538 57.499451 0.264454 0.016028 0.964265 
-23.489059 -8.375813 57.474869 0.535137 -0.076752 0.841271 
-23.434681 -8.350237 57.426319 0.573894 -0.092770 0.813658 
-23.367571 -8.315289 57.389530 0.250588 0.027932 0.967691 
-23.271360 -8.258918 57.379620 0.174947 0.136704 0.975041 
-23.195190 -8.217299 57.351238 0.759880 0.331091 0.559429 
-23.192459 -8.229744 57.255009 0.814630 0.463820 0.348208 
-23.148470 -8.211812 57.196892 0.736276 0.614830 0.282633 
-23.151039 -8.228168 57.095699 0.795143 0.572911 0.198797 
-23.106020 -8.209483 57.038509 0.796761 0.570252 0.199962 
-23.149660 -8.256096 56.899212 0.828204 0.517662 0.214719 
-23.098721 -8.233055 56.847450 0.777815 0.535029 0.329771 
-23.099140 -8.247850 56.748089 0.821151 0.480519 0.307916 
-23.055571 -8.230245 56.689491 0.862200 0.349172 0.367002 
-23.052320 -8.242350 56.593460 0.861726 0.384793 0.330699 
-23.006861 -8.223351 56.536579 0.728452 0.289266 0.621033 
-22.970490 -8.211050 56.471272 0.876344 0.136538 0.461930 
-22.934851 -8.199298 56.405251 0.624383 0.170785 0.762219 
-22.859289 -8.158110 56.376362 0.201918 0.105263 0.973729 
-22.769171 -8.106193 56.361031 0.638469 0.157019 0.753461 
-22.744089 -8.102217 56.285198 0.632730 0.216673 0.743442 
-22.664120 -8.057779 56.260460 0.410408 0.137796 0.901431 
-22.604980 -8.028687 56.216358 0.838052 0.072013 0.540818 
-22.586781 -8.029791 56.134090 0.666215 0.097985 0.739295 
-22.502350 -7.982050 56.113571 0.348908 0.161688 0.923103 
-22.447870 -7.956402 56.065140 0.726622 0.218031 0.651524 
-22.402420 -7.937402 56.008289 0.623147 0.311961 0.717195 
-22.350479 -7.913626 55.957489 0.795116 0.258555 0.548580 
-22.325569 -7.909781 55.881439 0.864666 0.352464 0.357941 
-22.292860 -7.900190 55.812649 0.629481 0.386211 0.674237 
-22.231979 -7.869816 55.770210 0.802322 0.384821 0.456281 
-22.229271 -7.882367 55.673321 0.809279 0.459582 0.365859 
-22.181170 -7.861420 55.618919 0.774731 0.594298 0.215874 
-22.217960 -7.903136 55.484959 0.756643 0.653187 -0.028943 
-22.184839 -7.893252 55.416470 0.676311 0.734202 0.059592 
-22.210251 -7.926585 55.293072 0.687252 0.726392 -0.006260 
-22.186420 -7.923575 55.215801 0.745985 0.657122 0.108155 
-22.181021 -7.934169 55.121208 0.527969 0.605400 0.595600 
-22.091681 -7.882787 55.105419 0.232885 0.333801 0.913423 
-22.030380 -7.852103 55.063332 0.624518 0.223218 0.748433 
-21.989691 -7.836642 55.001869 0.431181 0.115261 0.894873 
-21.889700 -7.777385 54.996170 0.192761 -0.001350 0.981245 
-21.810610 -7.733555 54.970871 0.420913 -0.088049 0.902818 
-21.741810 -7.697323 54.935902 0.722738 -0.245717 0.645967 
-21.698561 -7.679963 54.876881 0.735236 -0.148055 0.661444 
-21.640230 -7.651466 54.832069 0.920371 0.158877 0.357316 
-21.666149 -7.685225 54.707821 0.980878 0.112992 0.158463 
-21.634010 -7.676090 54.638279 0.989213 0.129663 0.068150 
-21.668530 -7.716224 54.505791 0.952969 0.251286 0.169423 
-21.631470 -7.703458 54.440842 0.833526 0.383644 0.397557 
-21.602579 -7.696733 54.368149 0.841322 0.308772 0.443663 
-21.553949 -7.675410 54.314121 0.766007 0.312101 0.561985 
-21.539391 -7.679289 54.227840 0.898667 0.218276 0.380464 
-21.493349 -7.659886 54.171341 0.395525 0.269555 0.878009 
-21.410690 -7.613397 54.149509 0.511276 0.311528 0.800966 
-21.370609 -7.598403 54.087379 0.433625 0.388372 0.813103 
-21.289021 -7.552703 54.064579 0.226340 0.369652 0.901182 
-21.222019 -7.517795 54.027969 0.672128 0.572533 0.469521 
-21.222120 -7.532526 53.927719 0.560491 0.693386 0.452841 
-21.160040 -7.501248 53.886459 0.365587 0.632316 0.683025 
-21.113911 -7.481782 53.830051 0.506468 0.719261 0.475556 
-21.084780 -7.474892 53.757488 0.304828 0.644983 0.700769 
-20.994869 -7.423015 53.742699 0.350890 0.536771 0.767303 
-20.959299 -7.411365 53.676250 0.563181 0.621283 0.544825 
-20.918650 -7.395948 53.614639 0.576581 0.543270 0.610255 
-20.867340 -7.372640 53.563171 0.682652 0.442861 0.581259 
-20.833990 -7.362636 53.494579 0.714648 0.225313 0.662203 
-20.764589 -7.325929 53.460361 0.323389 0.189455 0.927106 
-20.691830 -7.286739 53.429340 0.711185 0.380145 0.591359 
-20.684719 -7.296169 53.335720 0.848818 0.385206 0.362110 
-20.633039 -7.272586 53.284611 0.718015 0.547840 0.429332 
-20.622311 -7.279340 53.194389 0.687010 0.642983 0.338512 
-20.574539 -7.258654 53.139530 0.384816 0.709251 0.590661 
-20.524469 -7.236269 53.086861 0.440277 0.834809 0.330531 
-20.520439 -7.247995 52.990170 0.551481 0.818020 0.163441 
-20.491610 -7.241351 52.917160 0.649063 0.747841 0.139467 
-20.484039 -7.250471 52.823769 0.670835 0.582583 0.458887 
-20.419901 -7.217661 52.784538 0.734409 0.352949 0.579716 
-20.413630 -7.227746 52.689869 0.728301 0.301216 0.615505 
-20.335400 -7.184491 52.664150 0.177942 0.240548 0.954187 
-20.251610 -7.137109 52.643799 0.434476 0.418870 0.797357 
-20.219090 -7.127738 52.574261 0.833784 0.226018 0.503706 
-20.168970 -7.105317 52.521629 0.754127 0.336066 0.564227 
-20.143990 -7.101542 52.444832 0.902403 0.407321 0.140563 
-20.144119 -7.116386 52.343880 0.957071 0.281772 -0.067962 
-20.168751 -7.149420 52.219311 0.973089 0.203730 0.107670 
-20.133739 -7.138221 52.152061 0.903199 0.206441 0.376317 
-20.109989 -7.135373 52.073959 0.995994 0.022402 0.086566 
-20.101311 -7.143708 51.981331 0.919618 0.066242 0.387189 
-20.062090 -7.129390 51.918079 0.890126 0.247613 0.382576 
-20.040859 -7.128423 51.837479 0.647646 0.357443 0.672896 
-19.972771 -7.092687 51.802059 0.498169 0.290899 0.816826 
-19.926769 -7.073336 51.745338 0.682234 0.276296 0.676917 
-19.878450 -7.052268 51.690861 0.577901 0.179089 0.796214 
-19.815559 -7.020378 51.650459 0.782852 0.125019 0.609519 
-19.793430 -7.018754 51.570660 0.802469 0.067252 0.592892 
-19.722860 -6.981159 51.537701 0.362393 0.138523 0.921674 
-19.656330 -6.946570 51.500839 0.676255 0.426904 0.600360 
-19.635241 -6.945722 51.420010 0.562958 0.570449 0.598053 
-19.567881 -6.910504 51.383980 0.280695 0.550559 0.786191 
-19.513729 -6.885100 51.335159 0.254731 0.720768 0.644675 
-19.461109 -6.860838 51.284851 0.192772 0.589246 0.784620 
-19.386181 -6.819993 51.256210 0.215873 0.460483 0.861019 
-19.321819 -6.786999 51.217319 0.687496 0.558954 0.463594 
-19.322399 -6.802258 51.115398 0.826481 0.465628 0.316419 
-19.282881 -6.787725 51.052391 0.938334 0.299033 0.173515 
-19.303530 -6.817915 50.930882 0.865995 0.341263 0.365503 
-19.248690 -6.792005 50.882710 0.899200 0.255588 0.355127 
-19.251051 -6.808611 50.778900 0.826479 0.310357 0.469692 
-19.181971 -6.772110 50.744591 0.793500 0.441848 0.418482 
-19.214689 -6.811302 50.611149 0.830883 0.518497 0.201974 
-19.168249 -6.791641 50.554760 0.790745 0.547522 0.273754 
-19.178049 -6.813805 50.443539 0.702672 0.600210 0.382100 
-19.120300 -6.785732 50.398159 0.412481 0.512469 0.753150 
-19.067499 -6.761344 50.347950 0.490991 0.604764 0.627047 
-19.026409 -6.745662 50.286320 0.431835 0.567684 0.700894 
-18.959930 -6.711094 50.249489 0.730947 0.409611 0.545835 
-18.951290 -6.719559 50.156139 0.779478 0.253867 0.572683 
-18.879681 -6.681177 50.124321 0.292130 0.151003 0.944383 
-18.806200 -6.641395 50.094360 0.491287 0.204111 0.846744 
-18.758459 -6.620764 50.039230 0.424674 0.202670 0.882370 
-18.675100 -6.573625 50.018978 0.580765 -0.092595 0.808788 
-18.627729 -6.553266 49.963509 0.955545 -0.047910 0.290927 
-18.641069 -6.578112 49.848511 0.998030 0.055326 -0.029573 
-18.627920 -6.583238 49.759441 0.986165 0.164703 0.018760 
-18.636351 -6.604440 49.649158 0.962189 0.180438 0.204044 
-18.598761 -6.591378 49.584000 0.931467 0.210798 0.296536 
-18.583630 -6.595046 49.496780 0.781265 0.359491 0.510285 
-18.531811 -6.571390 49.445580 0.694719 0.494212 0.522609 
-18.510530 -6.570490 49.364342 0.796611 0.402852 0.450691 
-18.464781 -6.551353 49.307159 0.600929 0.213684 0.770210 
-18.408489 -6.524373 49.260349 0.723899 0.373156 0.580279 
-18.379971 -6.518074 49.186199 0.584905 0.409180 0.700327 
-18.310780 -6.481477 49.152100 0.273601 0.277272 0.921012 
-18.237221 -6.441617 49.122341 0.617892 0.360146 0.698931 
-18.200529 -6.429236 49.056229 0.492624 0.384550 0.780668 
-18.129459 -6.391232 49.024029 0.465487 0.221628 0.856857 
-18.079180 -6.368722 48.971329 0.784069 0.105950 0.611564 
-18.039591 -6.354174 48.908089 0.604516 0.200873 0.770851 
-17.976940 -6.322442 48.867611 0.733406 0.228708 0.640162 
-17.955200 -6.321211 48.786701 0.724637 0.298567 0.621095 
-17.886709 -6.285123 48.752010 0.662310 0.256731 0.703871 
-17.857670 -6.278448 48.678299 0.989238 0.092733 0.113172 
-17.854361 -6.290977 48.579090 0.963064 0.239729 0.122629 
-17.850420 -6.303037 48.480461 0.952485 0.283415 0.111574 
-17.828079 -6.301377 48.400021 0.831544 0.380894 0.404296 
-17.786341 -6.285246 48.338799 0.881615 0.410305 0.233248 
-17.790890 -6.303654 48.231651 0.868470 0.479482 0.125923 
-17.764080 -6.298671 48.155571 0.700114 0.582573 0.412855 
-17.724930 -6.284481 48.091721 0.501175 0.453560 0.736958 
-17.659220 -6.250463 48.054260 0.598073 0.201571 0.775679 
-17.615440 -6.232814 47.995022 0.624300 0.147549 0.767124 
-17.544950 -6.195231 47.962330 0.142473 0.141512 0.979630 
-17.446640 -6.136865 47.957359 0.178284 0.228406 0.957103 
-17.386410 -6.106928 47.914520 0.571675 0.475813 0.668423 
-17.350809 -6.095390 47.847149 0.680405 0.403664 0.611641 
-17.295521 -6.069141 47.799400 0.800152 0.393025 0.453087 
-17.299280 -6.087000 47.692780 0.796105 0.427168 0.428654 
-17.239830 -6.057647 47.649158 0.543395 0.504731 0.670797 
-17.192980 -6.037707 47.592979 0.618945 0.612999 0.491060 
-24.603060 -8.869745 59.280781 0.875402 0.477130 -0.077578 
-24.611380 -8.890220 59.175240 0.927026 0.373764 0.030390 
-24.588840 -8.888032 59.097710 0.827953 0.349059 0.438921 
-24.550631 -8.874336 59.034420 0.842177 0.408252 0.352233 
-24.531830 -8.874901 58.953461 0.617203 0.466541 0.633562 
-24.456940 -8.834264 58.923550 0.213633 0.274630 0.937518 
-24.379789 -8.791955 58.895741 0.416419 0.509271 0.753152 
-24.341040 -8.777865 58.832939 0.416485 0.531884 0.737319 
-24.270809 -8.740639 58.798840 0.195352 0.534299 0.822413 
-24.208460 -8.709207 58.757580 0.338933 0.842391 0.418929 
-24.196770 -8.715001 58.670071 0.519872 0.784605 0.337829 
-24.149611 -8.694736 58.614922 0.557189 0.762138 0.329675 
-24.148310 -8.708182 58.517860 0.719019 0.548777 0.426445 
-24.082500 -8.674200 58.479759 0.340972 0.370485 0.863990 
-24.015619 -8.639431 58.442650 0.656421 0.412662 0.631523 
-23.998510 -8.641259 58.360001 0.725674 0.196185 0.659476 
-23.916700 -8.595508 58.336578 0.326218 0.130532 0.936239 
-23.851311 -8.561829 58.298149 0.825850 0.153856 0.542495 
-23.845091 -8.571672 58.205479 0.793333 0.228860 0.564132 
-23.779699 -8.537988 58.167049 0.771654 0.377459 0.511932 
-23.778400 -8.551459 58.069820 0.919509 0.344538 0.189203 
-23.745420 -8.541626 58.001629 0.913616 0.369359 0.169938 
-23.763741 -8.569547 57.886299 0.969908 0.233591 0.068651 
-23.736891 -8.564232 57.812420 0.945516 0.286308 0.155006 
-23.733891 -8.576476 57.716591 0.920296 0.299194 0.252069 
-23.695250 -8.562492 57.653511 0.738493 0.274493 0.615858 
-23.644400 -8.539515 57.601681 0.820210 0.346295 0.455341 
-23.645781 -8.554999 57.501732 0.669895 0.318154 0.670834 
-23.553631 -8.501619 57.487930 0.465185 0.047510 0.883938 
-23.509029 -8.483243 57.430340 0.578329 0.022693 0.815488 
-23.429831 -8.439395 57.404659 0.295918 -0.022400 0.954951 
-23.335051 -8.384057 57.393391 0.085741 0.042420 0.995414 
-23.238970 -8.327760 57.383369 0.349083 0.054188 0.935524 
-23.183750 -8.301563 57.335629 0.860228 0.073847 0.504535 
-23.156509 -8.295972 57.262039 0.697951 0.364527 0.616428 
-23.101419 -8.269860 57.214191 0.839113 0.432346 0.330102 
-23.123739 -8.300797 57.094711 0.852257 0.458173 0.252459 
-23.082121 -8.284616 57.034370 0.928285 0.358434 0.099057 
-23.104231 -8.315405 56.914989 0.835357 0.515193 0.191717 
-23.064329 -8.300505 56.853008 0.854942 0.457378 0.244705 
-23.067579 -8.317408 56.751011 0.872477 0.404107 0.274739 
-23.024441 -8.300119 56.692009 0.848952 0.381935 0.365248 
-23.008820 -8.303117 56.607460 0.928077 0.280848 0.244536 
-22.979719 -8.296187 56.535389 0.805133 0.256569 0.534728 
-22.941210 -8.282313 56.472050 0.760906 0.385040 0.522271 
-22.905910 -8.270815 56.405720 0.519064 0.312216 0.795672 
-22.819389 -8.221539 56.387009 0.164182 0.233309 0.958442 
-22.752991 -8.187102 56.349609 0.579099 0.300419 0.757888 
-22.707830 -8.168321 56.292469 0.590938 0.254374 0.765562 
-22.643579 -8.135466 56.253090 0.676225 0.079153 0.732431 
-22.610189 -8.125369 56.184990 0.877054 -0.067176 0.475672 
-22.555849 -8.099823 56.136391 0.393929 0.060979 0.917116 
-22.472570 -8.052918 56.114799 0.517444 0.008869 0.855671 
-22.419889 -8.028586 56.064690 0.783168 0.025370 0.621292 
-22.385740 -8.017938 55.997269 0.708509 0.102977 0.698148 
-22.327980 -7.989862 55.951900 0.774088 0.229425 0.590044 
-22.302370 -7.985513 55.876492 0.855341 0.286967 0.431326 
-22.262871 -7.970914 55.814049 0.712743 0.301578 0.633284 
-22.220751 -7.954389 55.754051 0.903575 0.224881 0.364666 
-22.199970 -7.953615 55.674068 0.783548 0.292617 0.548113 
-22.141060 -7.924688 55.629780 0.856700 0.400222 0.325403 
-22.175011 -7.964345 55.498470 0.853828 0.514623 0.078360 
-22.138090 -7.951664 55.433540 0.780253 0.608970 0.142693 
-22.156919 -7.980165 55.316311 0.841909 0.538284 -0.037946 
-22.130871 -7.975526 55.241119 0.684427 0.707388 0.176524 
-22.129190 -7.988890 55.143040 0.503606 0.696815 0.510715 
-22.058510 -7.951273 55.109741 0.464805 0.392585 0.793620 
-22.016470 -7.934818 55.049541 0.602757 0.313012 0.733967 
-21.947309 -7.898325 55.014832 0.259571 0.201042 0.944566 
-21.866989 -7.853579 54.990650 0.375853 -0.025672 0.926323 
-21.796360 -7.815989 54.957371 0.736281 -0.144802 0.661002 
-21.776699 -7.816079 54.876110 0.765037 -0.210322 0.608673 
-21.694630 -7.770024 54.853649 0.627382 -0.267631 0.731277 
-21.651600 -7.752836 54.794399 0.957764 -0.194777 0.211542 
-21.652639 -7.768238 54.693581 0.948917 0.008611 0.315409 
-21.613661 -7.754053 54.630470 0.983159 0.114667 0.142301 
-21.632050 -7.782290 54.513199 0.832731 0.435949 0.341331 
-21.579741 -7.758250 54.462650 0.753416 0.546727 0.365315 
-21.599621 -7.787613 54.343868 0.738304 0.445179 0.506678 
-21.519320 -7.742866 54.319759 0.750250 0.329447 0.573228 
-21.512739 -7.752660 54.225929 0.785040 0.289657 0.547550 
-21.441441 -7.714565 54.193340 0.300041 0.248774 0.920916 
-21.375290 -7.680281 54.155880 0.454042 0.354851 0.817268 
-21.324909 -7.657668 54.103500 0.279824 0.464413 0.840249 
-21.250170 -7.617020 54.074219 0.392958 0.311169 0.865308 
-21.195370 -7.591136 54.026039 0.643964 0.533409 0.548438 
-21.169809 -7.586892 53.950130 0.535847 0.644686 0.545204 
-21.109400 -7.556851 53.907280 0.419443 0.556006 0.717583 
-21.064060 -7.537966 53.850128 0.428698 0.704253 0.565902 
-21.018970 -7.519262 53.792751 0.264762 0.657440 0.705460 
-20.956030 -7.487342 53.752331 0.336364 0.529940 0.778475 
-20.894779 -7.456675 53.710320 0.485680 0.679729 0.549622 
-20.871420 -7.454067 53.632259 0.768488 0.487327 0.414656 
-20.828840 -7.437229 53.572472 0.806450 0.427406 0.408611 
-20.823030 -7.447633 53.477650 0.766223 0.239380 0.596322 
-20.742960 -7.403014 53.453579 0.396313 0.022841 0.917831 
-20.677420 -7.369162 53.415680 0.844531 0.089082 0.528046 
-20.666990 -7.376152 53.325199 0.878067 0.132737 0.459761 
-20.612061 -7.350159 53.277191 0.890271 0.088453 0.446760 
-20.600780 -7.356526 53.187469 0.812585 0.178748 0.554757 
-20.538879 -7.325366 53.146111 0.520732 0.236144 0.820411 
-20.482241 -7.298109 53.099731 0.812410 0.333034 0.478622 
-20.466311 -7.301034 53.014400 0.841895 0.448124 0.300662 
-20.433081 -7.291140 52.945610 0.901066 0.409674 0.142296 
-20.460039 -7.325878 52.819160 0.894785 0.181868 0.407779 
-20.398331 -7.294860 52.777611 0.824948 0.133331 0.549257 
-20.373310 -7.291059 52.700890 0.667014 0.203047 0.716844 
-20.300900 -7.252105 52.669601 0.239202 0.095285 0.966283 
-20.215000 -7.203149 52.651260 0.702666 0.228909 0.673692 
-20.214420 -7.217477 52.551071 0.779261 0.277905 0.561712 
-20.143040 -7.179288 52.518829 0.736289 0.235053 0.634530 
-20.121550 -7.178111 52.438671 0.951856 0.283709 0.116097 
-20.120411 -7.192042 52.338921 0.942847 0.304931 -0.134375 
-20.136921 -7.219079 52.222160 0.963369 0.265041 0.040903 
-20.113760 -7.216680 52.143501 0.982492 0.154027 0.104809 
-20.148609 -7.257350 52.008961 0.905936 0.258636 0.335242 
-20.091110 -7.229468 51.963310 0.724073 0.172303 0.667855 
-20.050230 -7.213918 51.901649 0.859434 0.151304 0.488344 
-20.012609 -7.200795 51.836842 0.551447 0.279251 0.786082 
-19.943399 -7.164216 51.802502 0.508666 0.313088 0.802019 
-19.898100 -7.145393 51.745090 0.639722 0.395241 0.659197 
-19.853121 -7.126800 51.687389 0.626059 0.258393 0.735720 
-19.791611 -7.095937 51.645641 0.829800 0.174868 0.529956 
-19.780331 -7.102385 51.555351 0.722000 0.151976 0.674996 
-19.694500 -7.053449 51.537128 0.216571 0.127183 0.967947 
-19.617729 -7.011234 51.510189 0.686441 0.306940 0.659232 
-19.598200 -7.011556 51.427849 0.595882 0.388536 0.702826 
-19.518400 -6.967092 51.403851 0.260378 0.372359 0.890815 
-19.455910 -6.935484 51.363129 0.522286 0.481902 0.703554 
-19.419821 -6.923504 51.296810 0.573870 0.302315 0.761104 
-19.345810 -6.883333 51.267269 0.427294 0.293124 0.855276 
-19.303049 -6.866391 51.207420 0.895768 0.297205 0.330557 
-19.287050 -6.869350 51.121578 0.845094 0.450147 0.288417 
-19.262239 -6.865760 51.044270 0.903802 0.421543 0.073779 
-19.260330 -6.879201 50.944679 0.827015 0.508311 0.240138 
-19.228130 -6.870127 50.874489 0.851497 0.480564 0.209786 
-19.222870 -6.881088 50.778091 0.833224 0.379849 0.401811 
-19.173361 -6.859135 50.724720 0.932764 0.243950 0.265405 
-19.174730 -6.875041 50.621792 0.879053 0.408321 0.246049 
-19.136280 -6.861329 50.557610 0.818761 0.486333 0.305140 
-19.124880 -6.867741 50.467060 0.706720 0.579826 0.405399 
-19.073370 -6.844306 50.415600 0.389358 0.486447 0.782157 
-19.009970 -6.812027 50.375740 0.607500 0.508609 0.610132 
-18.984301 -6.807832 50.299049 0.797696 0.319018 0.511771 
-18.940781 -6.790347 50.239792 0.815306 0.391837 0.426310 
-18.927891 -6.795666 50.150581 0.694996 0.401722 0.596323 
-18.855101 -6.756393 50.119911 0.217146 0.223667 0.950169 
-18.774750 -6.711484 50.096668 0.316179 0.369519 0.873777 
-18.721420 -6.686694 50.047009 0.636824 0.261882 0.725172 
-18.676611 -6.668246 49.989010 0.634473 0.179206 0.751884 
-18.622709 -6.643035 49.939911 0.943106 0.203300 0.263097 
-18.635870 -6.667775 49.825069 0.978539 0.204005 0.029044 
-18.616619 -6.668378 49.741951 0.998021 0.062634 0.005639 
-18.623381 -6.688363 49.633289 0.887889 0.280461 0.364684 
-18.587391 -6.676497 49.566551 0.881205 0.315171 0.352343 
-18.561069 -6.671843 49.490299 0.595887 0.407141 0.692210 
-18.485069 -6.630167 49.462860 0.673092 0.504724 0.540557 
-18.492220 -6.650465 49.353661 0.769932 0.433008 0.468732 
-18.424219 -6.614750 49.318371 0.414843 0.330605 0.847706 
-18.364250 -6.585014 49.275181 0.711597 0.352241 0.607911 
-18.335800 -6.578785 49.200958 0.464839 0.442040 0.767154 
-18.254230 -6.532943 49.179070 0.369009 0.417462 0.830396 
-18.216230 -6.519596 49.114250 0.710767 0.353189 0.608332 
-18.165800 -6.496971 49.061691 0.573738 0.255435 0.778189 
-18.105869 -6.467261 49.018509 0.604392 0.220380 0.765600 
-18.063311 -6.450509 48.958179 0.670937 0.238340 0.702167 
-18.000940 -6.418981 48.917412 0.406328 0.294355 0.865016 
-17.937811 -6.386880 48.877411 0.642727 0.417039 0.642635 
-17.907261 -6.379091 48.805210 0.745522 0.355063 0.564028 
-17.858730 -6.357886 48.750778 0.856063 0.267516 0.442258 
-17.859400 -6.373393 48.647659 0.944181 0.266636 0.193462 
-17.821430 -6.360073 48.582748 0.858103 0.426490 0.285946 
-17.812860 -6.368700 48.488701 0.882400 0.451008 0.134022 
-17.791161 -6.367528 48.407619 0.733002 0.564536 0.379483 
-17.760309 -6.359532 48.335590 0.840955 0.520787 0.146888 
-17.753361 -6.369384 48.239830 0.761838 0.599839 0.244531 
-17.714020 -6.355048 48.176201 0.662416 0.629696 0.405818 
-17.691151 -6.353019 48.096180 0.718845 0.390980 0.574801 
-17.630541 -6.322806 48.053650 0.581241 0.350415 0.734416 
-17.592831 -6.309693 47.988369 0.495636 0.347000 0.796201 
-17.509041 -6.262165 47.968910 -0.009065 0.220346 0.975380 
-17.406281 -6.200454 47.968369 0.110496 0.266912 0.957366 
-17.334339 -6.161767 47.937191 0.536409 0.586330 0.607028 
-17.325920 -6.170535 47.842758 0.653769 0.512916 0.556330 
-17.252569 -6.130788 47.813000 0.697525 0.511126 0.502205 
-17.250019 -6.143955 47.712662 0.660560 0.618615 0.425413 
-17.194571 -6.117589 47.665051 0.682997 0.511926 0.521005 
-17.182871 -6.123922 47.573792 0.915672 0.383819 0.119278 
-24.563540 -8.933264 59.291130 0.922405 0.341356 -0.180682 
-24.578779 -8.958846 59.179291 0.907911 0.416490 0.047255 
-24.559540 -8.959096 59.098751 0.719343 0.482518 0.499721 
-24.504650 -8.933146 59.050640 0.689253 0.575716 0.439865 
-24.497829 -8.942530 58.958759 0.630250 0.493526 0.599347 
-24.417690 -8.898020 58.933640 0.158287 0.280683 0.946659 
-24.337980 -8.853817 58.908161 0.567013 0.328445 0.755394 
-24.304260 -8.843428 58.840778 0.461585 0.361403 0.810140 
-24.214371 -8.791740 58.824619 0.116861 0.363556 0.924213 
-24.140350 -8.751713 58.794022 0.523335 0.689422 0.500817 
-24.145870 -8.770180 58.690800 0.483930 0.796510 0.362470 
-24.076540 -8.733604 58.655930 0.558808 0.777797 0.287690 
-24.106770 -8.770263 58.530041 0.576795 0.756859 0.307362 
-24.049440 -8.742515 58.484192 0.390198 0.541666 0.744543 
-23.991350 -8.714205 58.439041 0.787920 0.391745 0.475098 
-23.978090 -8.718879 58.352852 0.713038 0.261754 0.650432 
-23.897079 -8.673703 58.328690 0.479382 0.085038 0.873477 
-23.849470 -8.653105 58.273960 0.869975 0.036325 0.491756 
-23.811081 -8.639289 58.210770 0.670187 0.172207 0.721938 
-23.753010 -8.610989 58.165619 0.854437 0.253627 0.453443 
-23.751539 -8.624356 58.068531 0.934547 0.289661 0.206683 
-23.719521 -8.615238 57.999451 0.932007 0.339275 0.127496 
-23.736860 -8.642470 57.884998 0.965345 0.257384 0.043147 
-23.707720 -8.635480 57.813221 0.942380 0.273115 0.193202 
-23.711651 -8.652843 57.711010 0.899598 0.345399 0.267250 
-23.674160 -8.639710 57.646870 0.626204 0.399475 0.669543 
-23.622129 -8.615870 57.596111 0.802424 0.359638 0.476210 
-23.588350 -8.605468 57.528549 0.517162 0.422100 0.744564 
-23.525360 -8.573549 57.487888 0.495768 0.261008 0.828305 
-23.467911 -8.545712 57.442131 0.446438 0.266248 0.854286 
-23.404579 -8.513539 57.401821 0.324667 0.051852 0.944406 
-23.309719 -8.458128 57.390621 0.143456 -0.017492 0.989502 
-23.219650 -8.406248 57.375038 0.492954 0.038846 0.869188 
-23.176380 -8.388850 57.316250 0.800024 0.036340 0.598866 
-23.123819 -8.364601 57.266060 0.675563 0.218007 0.704335 
-23.087179 -8.352097 57.201141 0.885828 0.386639 0.256551 
-23.076820 -8.358969 57.111889 0.851248 0.508263 0.130563 
-23.061991 -8.362546 57.026741 0.896471 0.443036 -0.007734 
-23.067961 -8.381466 56.922291 0.885005 0.430050 0.178389 
-23.029819 -8.367863 56.858681 0.905089 0.362296 0.222610 
-23.036869 -8.387592 56.753151 0.927109 0.299493 0.225328 
-22.998230 -8.373626 56.689968 0.929993 0.258111 0.261709 
-23.012791 -8.398909 56.577381 0.883573 0.231329 0.407168 
-22.947420 -8.365226 56.538990 0.548125 0.341173 0.763649 
-22.904579 -8.348163 56.479671 0.708502 0.454126 0.540180 
-22.869949 -8.337167 56.412701 0.426233 0.387528 0.817403 
-22.775820 -8.282258 56.401081 0.216820 0.259227 0.941164 
-22.711411 -8.249277 56.361839 0.608810 0.415050 0.676080 
-22.687180 -8.245952 56.285198 0.664593 0.349857 0.660240 
-22.618340 -8.209699 56.250099 0.757619 0.294687 0.582386 
-22.614780 -8.221634 56.154179 0.753720 0.273264 0.597690 
-22.534370 -8.176839 56.129879 0.408932 0.061658 0.910480 
-22.473860 -8.146729 56.087040 0.588326 0.064981 0.806009 
-22.422760 -8.123571 56.035431 0.633802 0.123532 0.763567 
-22.356911 -8.089520 55.997589 0.504746 0.201806 0.839348 
-22.301559 -8.063216 55.949970 0.731864 0.329785 0.596337 
-22.275499 -8.058548 55.874969 0.848404 0.264015 0.458811 
-22.227409 -8.037613 55.820560 0.757148 0.264893 0.597125 
-22.196280 -8.029207 55.750271 0.940557 0.168742 0.294751 
-22.176840 -8.029439 55.669022 0.788769 0.175899 0.588985 
-22.120899 -8.002696 55.621948 0.950612 0.147714 0.272978 
-22.140869 -8.032064 55.503731 0.882317 0.380167 0.277470 
-22.093760 -8.011851 55.448349 0.867289 0.447997 0.217045 
-22.132851 -8.055362 55.312099 0.786133 0.561258 0.258813 
-22.073870 -8.026386 55.267818 0.644359 0.655733 0.393467 
-22.070311 -8.038383 55.171501 0.633951 0.640997 0.432700 
-22.013100 -8.010715 55.125549 0.486370 0.556235 0.673830 
-21.975100 -7.997253 55.061550 0.522821 0.538198 0.661061 
-21.921249 -7.972065 55.012459 0.428829 0.323287 0.843558 
-21.853760 -7.936793 54.976200 0.393694 0.216972 0.893268 
-21.792669 -7.906254 54.933929 0.847088 0.078847 0.525571 
-21.768339 -7.902905 54.857052 0.795385 0.033730 0.605165 
-21.711121 -7.875227 54.811150 0.783468 -0.074860 0.616906 
-21.679340 -7.866366 54.741268 0.943782 -0.151987 0.293557 
-21.643160 -7.854257 54.675510 0.905817 -0.067368 0.418278 
-21.625299 -7.855700 54.592468 0.981678 0.017661 0.189725 
-21.596531 -7.849074 54.519699 0.698718 0.310153 0.644669 
-21.541479 -7.823007 54.471729 0.846170 0.386824 0.366556 
-21.540010 -7.836590 54.373131 0.783823 0.517281 0.343573 
-21.504700 -7.825131 54.306480 0.934872 0.215207 0.282311 
-21.488100 -7.827531 54.222118 0.727670 0.241687 0.641937 
-21.418270 -7.790514 54.188129 0.277055 0.169781 0.945735 
-21.335890 -7.744211 54.166031 0.219496 0.368447 0.903365 
-21.272160 -7.711706 54.126308 0.437434 0.367423 0.820763 
-21.217560 -7.685966 54.077942 0.347263 0.329879 0.877831 
-21.139360 -7.642739 54.051971 0.629788 0.483765 0.607733 
-21.127220 -7.648448 53.963322 0.699824 0.456092 0.549751 
-21.064911 -7.616994 53.922279 0.348265 0.465347 0.813734 
-21.005251 -7.587502 53.878731 0.526676 0.539448 0.656969 
-20.966631 -7.573596 53.815201 0.598650 0.398252 0.694992 
-20.905689 -7.543145 53.772900 0.398024 0.384646 0.832841 
-20.851360 -7.517602 53.724300 0.812079 0.381682 0.441415 
-20.846560 -7.528762 53.628571 0.808719 0.359159 0.465809 
-20.790150 -7.501676 53.581951 0.825165 0.386833 0.411659 
-20.789740 -7.516097 53.481979 0.750838 0.356671 0.555903 
-20.723330 -7.481598 53.444889 0.493655 0.097870 0.864133 
-20.660990 -7.450113 53.403931 0.881701 0.015627 0.471550 
-20.650089 -7.456770 53.313889 0.899264 0.077131 0.430552 
-20.611420 -7.442838 53.250332 0.876724 0.129549 0.463219 
-20.576891 -7.431974 53.182812 0.709040 0.202643 0.675424 
-20.516870 -7.402208 53.139641 0.677543 0.114366 0.726537 
-20.477900 -7.388059 53.076351 0.941601 -0.083932 0.326104 
-20.450661 -7.382608 53.001831 0.951111 -0.125171 0.282346 
-20.440840 -7.390085 52.910622 0.994990 -0.096229 0.027107 
-20.437990 -7.402745 52.812691 0.875997 0.126978 0.465301 
-20.393190 -7.384274 52.754921 0.873959 0.014571 0.485781 
-20.357849 -7.372826 52.688080 0.581497 0.081720 0.809434 
