-41.052410 0.893461 31.213329 0.402380 0.526529 0.748904 
-41.014709 0.907120 31.141621 0.376991 0.551750 0.743942 
-40.924450 0.954388 31.120720 0.081192 0.598362 0.797102 
-40.859718 0.985336 31.075159 0.327558 0.776115 0.538843 
-40.833469 0.991678 30.992371 0.522987 0.628000 0.576282 
-40.757542 1.029793 30.957670 0.399261 0.690368 0.603310 
-40.735371 1.033523 30.870911 0.635279 0.677628 0.370461 
-40.701660 1.044631 30.795300 0.602747 0.562532 0.565909 
-40.627331 1.081726 30.759069 0.565161 0.665279 0.487849 
-40.615459 1.078863 30.662260 0.501296 0.813933 0.293623 
-40.569580 1.097756 30.598431 0.563767 0.803776 0.190028 
-40.584129 1.077981 30.475910 0.753098 0.657737 -0.014995 
-40.559460 1.083302 30.391430 0.658843 0.742830 0.118865 
-40.567329 1.067798 30.275311 0.620463 0.536907 0.571626 
-40.464699 1.122999 30.266569 0.370778 0.578731 0.726357 
-40.435680 1.131097 30.186270 0.452945 0.663868 0.595080 
-40.371689 1.161575 30.139990 0.149796 0.488990 0.859331 
-40.272190 1.214782 30.128290 0.319206 0.596895 0.736087 
-40.242371 1.223391 30.048759 0.325470 0.575927 0.749918 
-40.133301 1.282738 30.046459 0.057958 0.363473 0.929800 
-40.062519 1.317569 30.006870 0.606473 0.587102 0.536192 
-40.050362 1.314874 29.910101 0.527112 0.668010 0.525277 
-39.974800 1.352766 29.875179 0.311768 0.695290 0.647590 
-39.941719 1.363463 29.798800 0.385124 0.875737 0.291143 
-39.922272 1.365427 29.709070 0.564958 0.720839 0.401516 
-39.865131 1.391531 29.656170 0.479511 0.803541 0.352691 
-39.856979 1.386256 29.555361 0.554995 0.798547 0.233033 
-39.811630 1.404806 29.490910 0.532710 0.796034 0.287316 
-39.798100 1.402972 29.395290 0.581486 0.722528 0.373935 
-39.748009 1.424553 29.335449 0.617887 0.691316 0.374564 
-39.741310 1.418338 29.233089 0.559475 0.703364 0.438482 
-39.678150 1.448296 29.186050 0.639323 0.679985 0.359009 
-39.678841 1.437342 29.076380 0.812459 0.434247 0.389024 
-39.621349 1.463664 29.023760 0.215999 0.331192 0.918507 
-39.514809 1.521422 29.019310 0.410713 0.526986 0.744044 
-39.485531 1.529670 28.939020 0.384109 0.578668 0.719447 
-39.395069 1.577128 28.918831 0.301182 0.343848 0.889415 
-39.333969 1.605767 28.869801 0.534196 0.506086 0.677135 
-39.294411 1.620603 28.799601 0.355222 0.632178 0.688599 
-39.208260 1.665308 28.775249 0.245992 0.590512 0.768625 
-39.159580 1.685990 28.714029 0.459925 0.775595 0.432345 
-39.137058 1.689902 28.627029 0.280870 0.775038 0.566064 
-39.039410 1.741987 28.614059 0.419598 0.801817 0.425472 
-39.060760 1.717763 28.483770 0.592806 0.722670 0.355427 
-38.967430 1.767079 28.466579 0.400546 0.803334 0.440701 
-38.947418 1.769375 28.377029 0.517483 0.807663 0.282652 
-38.909760 1.782986 28.304890 0.523084 0.781626 0.339771 
-38.868931 1.798634 28.235870 0.586827 0.773274 0.240169 
-38.862091 1.792474 28.133240 0.590298 0.745464 0.309567 
-38.818489 1.809899 28.066931 0.651031 0.729068 0.211230 
-38.818729 1.799193 27.957220 0.711824 0.664133 0.228549 
-38.771450 1.818971 27.894510 0.450105 0.758948 0.470536 
-38.740662 1.828167 27.815460 0.298608 0.691581 0.657684 
-38.655991 1.871940 27.789789 0.068873 0.459260 0.885628 
-38.569229 1.917059 27.766220 0.392514 0.506461 0.767743 
-38.532341 1.930171 27.693220 0.359800 0.459530 0.812020 
-38.414009 1.995559 27.701031 0.277013 0.470379 0.837859 
-38.376621 2.008993 27.628531 0.476641 0.726451 0.495059 
-38.330608 2.027959 27.564581 0.236624 0.728637 0.642727 
-38.259460 2.063069 27.525620 0.385391 0.708317 0.591407 
-38.224430 2.074991 27.450760 0.560143 0.721540 0.406964 
-38.178028 2.094208 27.387180 0.646800 0.731293 0.216472 
-38.203178 2.067479 27.252390 0.764835 0.644066 -0.014361 
-38.165691 2.080974 27.179899 0.405830 0.853883 0.325861 
-38.127670 2.094806 27.107929 0.231812 0.913420 0.334555 
-38.081692 2.113749 27.043871 0.069699 0.898989 0.432389 
-38.014919 2.146048 27.000549 0.323615 0.902244 0.285007 
-38.019100 2.132768 26.886450 0.422058 0.822677 0.380879 
-37.949409 2.166944 26.846041 0.214351 0.787738 0.577515 
-37.895908 2.190722 26.789480 0.116540 0.829465 0.546266 
-37.845558 2.212472 26.729759 0.143100 0.664807 0.733180 
-37.743420 2.267505 26.721830 0.217875 0.786345 0.578094 
-37.728401 2.266556 26.626801 0.174248 0.837960 0.517165 
-37.639400 2.313145 26.605770 -0.043558 0.683568 0.728586 
-37.560719 2.353105 26.574440 0.044240 0.830869 0.554707 
-37.527500 2.363854 26.497610 0.238992 0.944101 0.227059 
-41.684891 0.560536 32.301029 0.075621 0.644934 0.760488 
-41.605259 0.601001 32.269711 0.402415 0.636181 0.658283 
-41.562660 0.617803 32.202881 0.457011 0.818416 0.348333 
-41.538769 0.622646 32.118092 0.734401 0.655786 0.174927 
-41.529671 0.618033 32.019070 0.646483 0.724425 0.239307 
-41.487129 0.634792 31.952141 0.397781 0.750090 0.528333 
-41.422630 0.665589 31.906309 0.358235 0.777924 0.516238 
-41.395309 0.672616 31.824730 0.401371 0.881338 0.249290 
-41.368031 0.679620 31.743099 0.558396 0.828835 0.035029 
-41.376480 0.663773 31.627041 0.392215 0.870164 0.298298 
-41.309601 0.696088 31.583481 0.255273 0.657616 0.708786 
-41.250381 0.723514 31.532560 0.665147 0.601444 0.442542 
-41.245750 0.716021 31.429010 0.743547 0.505219 0.438055 
-41.190922 0.740633 31.373840 0.550561 0.675325 0.490733 
-41.160851 0.749413 31.294790 0.362097 0.705935 0.608721 
-41.089630 0.784511 31.255440 0.211881 0.437236 0.874031 
-41.016350 0.820927 31.218090 0.243005 0.596160 0.765207 
-40.962959 0.844623 31.161551 0.255754 0.574396 0.777598 
-40.871059 0.892957 31.142241 0.170681 0.385895 0.906616 
-40.798538 0.928895 31.104231 0.572374 0.616753 0.540374 
-40.792881 0.922053 31.001520 0.617442 0.510653 0.598330 
-40.703049 0.969069 30.980270 0.489709 0.555412 0.672088 
-40.684631 0.970387 30.889879 0.717540 0.630254 0.296507 
-40.648670 0.982930 30.816460 0.569625 0.605117 0.556202 
-40.606270 0.999597 30.749281 0.551710 0.661440 0.508048 
-40.562630 1.017049 30.683270 0.642192 0.661748 0.386884 
-40.529301 1.027909 30.607269 0.785616 0.603936 0.134421 
-40.541290 1.009746 30.487221 0.750385 0.654292 0.093940 
-40.509602 1.019551 30.409559 0.705559 0.700652 0.106172 
-40.516319 1.004759 30.294550 0.501124 0.656899 0.563346 
-40.422779 1.054160 30.276991 0.327523 0.565691 0.756785 
-40.386230 1.067067 30.204000 0.578580 0.535925 0.614841 
-40.320210 1.098855 30.159710 0.183431 0.331199 0.925559 
-40.229019 1.146760 30.139931 0.401958 0.426257 0.810392 
-40.183041 1.165710 30.076139 0.253637 0.488571 0.834845 
-40.092659 1.213107 30.055639 0.170107 0.282034 0.944204 
-40.010700 1.255106 30.026951 0.559623 0.587736 0.584285 
-40.005939 1.247655 29.922960 0.418305 0.709311 0.567362 
-39.910660 1.298195 29.907301 0.106832 0.624872 0.773383 
-39.837471 1.334583 29.870100 0.495934 0.770846 0.399807 
-39.852661 1.314341 29.746559 0.435899 0.849326 0.297721 
-39.784641 1.347417 29.704300 0.367063 0.876154 0.312440 
-39.793251 1.331384 29.587111 0.497881 0.854149 0.150146 
-39.753632 1.346260 29.517059 0.544286 0.821317 0.170854 
-39.751560 1.337066 29.410231 0.489803 0.787872 0.373298 
-39.684608 1.369457 29.366911 0.313245 0.857071 0.409031 
-39.663471 1.372479 29.278700 0.446321 0.841269 0.305064 
-39.622929 1.387939 29.209490 0.741089 0.660257 0.121850 
-39.644539 1.363551 29.079300 0.535360 0.704034 0.466611 
-39.547390 1.415308 29.065611 0.036796 0.482286 0.875241 
-39.473629 1.452067 29.028990 0.236813 0.605770 0.759580 
-39.417751 1.477363 28.974819 0.218579 0.730515 0.646971 
-39.365490 1.500340 28.917110 0.328225 0.516809 0.790681 
-39.271969 1.549781 28.899969 0.255730 0.677759 0.689380 
-39.239780 1.559882 28.822519 0.476502 0.568044 0.671023 
-39.161659 1.599446 28.790270 0.204956 0.443493 0.872529 
-39.087292 1.636612 28.754351 0.299312 0.756972 0.580866 
-39.057800 1.644981 28.674231 0.313435 0.744188 0.589867 
-38.987309 1.679659 28.634510 0.183517 0.689585 0.700567 
-38.887428 1.722643 28.514561 0.329103 0.877416 0.349044 
-38.918331 1.713371 28.593321 0.314658 0.856831 0.408449 
-38.834801 1.745864 28.457239 0.286627 0.933242 0.216574 
-38.844952 1.728791 28.337910 0.582016 0.805881 0.108687 
-38.808079 1.741891 28.264990 0.427539 0.867077 0.255712 
-38.787029 1.744839 28.176411 0.424863 0.864077 0.269930 
-38.743099 1.762469 28.110439 0.608432 0.782583 0.131812 
-38.764431 1.738201 27.979860 0.548105 0.788254 0.279708 
-38.698662 1.769850 27.935471 0.182532 0.812232 0.554041 
-38.651970 1.789247 27.872181 0.159662 0.825972 0.540628 
-38.594379 1.815646 27.819691 0.162208 0.637546 0.753142 
-38.514568 1.856315 27.789249 0.209693 0.690335 0.692435 
-38.469700 1.874548 27.724171 0.171848 0.607939 0.775164 
-38.371029 1.927333 27.712481 0.062391 0.412218 0.908946 
-38.281288 1.974392 27.691971 0.261451 0.753379 0.603376 
-38.261330 1.976624 27.602171 0.532970 0.669200 0.517798 
-38.190990 2.011226 27.562420 0.535014 0.638661 0.553057 
-38.183949 2.005152 27.459721 0.514230 0.762624 0.392394 
-38.127232 2.031002 27.406420 0.338730 0.817553 0.465692 
-38.071838 2.045391 27.242010 0.390844 0.888983 0.238644 
-38.065880 2.059822 27.357731 0.437730 0.881610 0.176512 
-38.001671 2.079887 27.202110 0.358064 0.825466 0.436344 
-37.995461 2.073271 27.098440 0.441476 0.836736 0.323993 
-37.940731 2.097837 27.043131 0.646788 0.694822 0.314464 
-37.934582 2.091179 26.939350 0.325019 0.875760 0.356941 
-37.878540 2.116585 26.885330 0.224161 0.778918 0.585695 
-37.816238 2.146022 26.837570 0.282123 0.777720 0.561746 
-37.775669 2.161487 26.768101 0.201089 0.634115 0.746634 
-37.676170 2.214838 26.757549 -0.014699 0.659351 0.751692 
-37.613899 2.244259 26.709789 0.017511 0.863066 0.504788 
-37.568810 2.262630 26.644859 0.107093 0.757300 0.644227 
-37.469109 2.316126 26.634600 0.217887 0.729666 0.648161 
-37.437340 2.325933 26.556330 0.290086 0.831431 0.473890 
-37.364071 2.362432 26.519640 0.197883 0.546674 0.813628 
-37.288971 2.400110 26.484800 0.155141 0.462053 0.873177 
-41.654121 0.495133 32.408440 0.239901 0.789337 0.565150 
-41.600422 0.519030 32.352268 0.156048 0.774633 0.612856 
-41.541691 0.546144 32.300919 0.439025 0.676917 0.590797 
-41.492229 0.567327 32.240681 0.631447 0.697769 0.338221 
-41.492229 0.556878 32.132969 0.608289 0.727947 0.316350 
-41.422359 0.591116 32.092312 0.503008 0.783462 0.364925 
-41.443020 0.567449 31.964680 0.582866 0.684713 0.437533 
-41.359360 0.610509 31.937269 0.297828 0.725138 0.620865 
-41.329842 0.618938 31.857830 0.555172 0.776665 0.297616 
-41.295319 0.630562 31.783159 0.682171 0.728039 0.067830 
-41.321571 0.603301 31.649969 0.520160 0.808989 0.273806 
-41.265339 0.628817 31.596170 0.609583 0.569045 0.551903 
-41.226849 0.642974 31.525270 0.664780 0.611235 0.429487 
-41.193802 0.653649 31.449110 0.474696 0.680440 0.558269 
-41.124550 0.687493 31.407860 0.353653 0.766960 0.535445 
-41.105572 0.689164 31.318100 0.356753 0.780682 0.513092 
-41.031551 0.726061 31.281460 0.032313 0.575630 0.817072 
-40.923969 0.784445 31.277269 0.307590 0.703968 0.640169 
-40.912571 0.781261 31.180161 0.412209 0.689185 0.595909 
-40.828831 0.824386 31.152969 0.121412 0.482346 0.867526 
-40.752140 0.863006 31.118999 0.587730 0.646780 0.486054 
-40.749378 0.854286 31.013479 0.481894 0.645979 0.592021 
-40.657398 0.902697 30.994320 0.454403 0.621873 0.637803 
-40.637310 0.905072 30.905550 0.472134 0.803099 0.363484 
-40.590961 0.924263 30.842199 0.203662 0.799324 0.565334 
-40.509010 0.966250 30.813370 0.427323 0.810825 0.399948 
-40.520599 0.948332 30.693810 0.649202 0.723413 0.234971 
-40.470631 0.969840 30.633949 0.498001 0.842703 0.204564 
-40.481541 0.952343 30.514950 0.677096 0.732259 0.073061 
-40.447300 0.963776 30.439791 0.656232 0.743429 0.129122 
-40.454948 0.948362 30.323870 0.441571 0.729272 0.522664 
-40.358559 0.999608 30.309090 0.516870 0.568882 0.639702 
-40.351181 0.993816 30.207729 0.577275 0.590941 0.563509 
-40.275059 1.032079 30.173260 0.195844 0.368789 0.908647 
-40.188011 1.077353 30.149469 0.246430 0.447855 0.859475 
-40.131119 1.103295 30.096310 0.243599 0.516915 0.820645 
-40.050442 1.144485 30.066351 0.057262 0.405435 0.912328 
-39.960770 1.191446 30.045200 0.292794 0.658320 0.693460 
-39.915539 1.209912 29.980690 0.309480 0.740017 0.597158 
-39.863701 1.232623 29.922649 0.383109 0.516860 0.765561 
-39.794090 1.266728 29.881960 0.465980 0.727345 0.503818 
-39.778080 1.266466 29.788900 0.378244 0.820022 0.429530 
-39.709969 1.299607 29.746759 0.480463 0.778188 0.404448 
-39.703838 1.293004 29.643990 0.511681 0.849696 0.127278 
-39.676540 1.299972 29.561899 0.454201 0.879595 0.141474 
-39.664551 1.297122 29.464790 0.298929 0.896468 0.327088 
-39.604858 1.324864 29.414391 0.479326 0.812835 0.330977 
-39.598320 1.318509 29.311880 0.637860 0.758300 0.134594 
-39.576340 1.322060 29.224480 0.679415 0.726363 0.103889 
-39.559299 1.322439 29.132210 0.173296 0.883171 0.435864 
-39.497261 1.351682 29.084070 0.066976 0.667899 0.741232 
-39.392960 1.408055 29.077459 -0.041586 0.704708 0.708277 
-39.338139 1.432669 29.022270 0.301903 0.828048 0.472432 
-39.298302 1.447677 28.952360 0.198398 0.682824 0.703128 
-39.206902 1.495774 28.933149 0.496291 0.628317 0.599093 
-39.198620 1.490528 28.832190 0.447086 0.663649 0.599737 
-39.109619 1.537089 28.810650 0.029504 0.515658 0.856287 
-39.023289 1.581939 28.786520 0.377464 0.696018 0.610802 
-39.002159 1.584937 28.698170 0.276878 0.748727 0.602284 
-38.898109 1.641166 28.691549 0.051191 0.699794 0.712508 
-38.850349 1.661264 28.629450 0.554150 0.735183 0.390416 
-38.822681 1.668453 28.547510 0.456779 0.689111 0.562565 
-38.749802 1.704679 28.510210 0.508097 0.773743 0.378364 
-38.776810 1.676753 28.374229 0.661745 0.730568 0.168413 
-38.718102 1.703876 28.322901 0.483922 0.789781 0.376916 
-38.720871 1.691506 28.210779 0.772315 0.626853 0.102885 
-38.690380 1.700503 28.131519 0.678283 0.717533 0.158364 
-38.693520 1.687892 28.018950 0.499283 0.784217 0.368403 
-38.622570 1.722876 27.979700 0.302284 0.666775 0.681201 
-38.575562 1.742478 27.916750 0.343344 0.759984 0.551851 
-38.528820 1.761913 27.853531 0.135599 0.692973 0.708097 
-38.437778 1.809806 27.834230 0.250980 0.744433 0.618732 
-38.409851 1.817153 27.752359 0.217412 0.725234 0.653274 
-38.319649 1.864513 27.732281 -0.033368 0.481335 0.875901 
-38.222969 1.916046 27.718670 0.544731 0.612545 0.572762 
-38.227291 1.902666 27.604750 0.601938 0.580797 0.548038 
-38.142601 1.946495 27.579260 0.172005 0.638217 0.750396 
-38.078049 1.977375 27.533760 0.150516 0.871204 0.467278 
-38.048271 1.985909 27.453690 0.358144 0.836240 0.415253 
-37.993389 2.010577 27.398581 0.559114 0.802155 0.209618 
-38.024620 1.979871 27.257690 0.600783 0.705411 0.376106 
-37.949520 2.017543 27.222700 0.613483 0.611221 0.500048 
-37.938839 2.013787 27.123501 0.838556 0.497198 0.222751 
-37.910091 2.021641 27.042271 0.598022 0.606949 0.523434 
-37.849079 2.050251 26.993231 0.435914 0.733791 0.521086 
-37.816078 2.060844 26.916229 0.453653 0.669710 0.587952 
-37.753849 2.090240 26.868420 0.379651 0.734825 0.562047 
-37.724709 2.098343 26.787531 0.245631 0.646108 0.722641 
-37.603958 2.165392 26.798241 -0.054339 0.459160 0.886690 
-37.520290 2.208583 26.771910 0.295099 0.756064 0.584195 
-37.503281 2.208887 26.678890 0.351889 0.708759 0.611420 
-37.416691 2.253963 26.655510 0.312966 0.571707 0.758422 
-37.368889 2.274085 26.593321 0.388365 0.641097 0.661942 
-37.310940 2.300733 26.541290 0.319903 0.466812 0.824469 
-37.233891 2.339673 26.508410 0.199294 0.535943 0.820394 
-37.185371 2.360255 26.446939 -0.004674 0.744466 0.667644 
-37.095600 2.407398 26.426880 -0.034452 0.701162 0.712169 
-41.589359 0.441051 32.440781 0.214432 0.591808 0.777034 
-41.526779 0.470630 32.393131 0.348506 0.749056 0.563436 
-41.499691 0.477501 32.311451 0.626004 0.616114 0.478040 
-41.445171 0.501922 32.256069 0.599738 0.710571 0.367971 
-41.440430 0.494490 32.152908 0.565284 0.702844 0.431815 
-41.376999 0.524613 32.106071 0.594110 0.716998 0.364619 
-41.377998 0.513495 31.997320 0.325728 0.831064 0.450814 
-41.294060 0.556747 31.970200 0.415890 0.745597 0.520693 
-41.275021 0.558462 31.880680 0.658160 0.713237 0.241076 
-41.248402 0.565018 31.798410 0.681479 0.712356 0.167736 
-41.223652 0.570378 31.714331 0.677655 0.727877 0.104775 
-41.223049 0.560275 31.606951 0.573910 0.687203 0.445398 
-41.149601 0.596818 31.569759 0.362514 0.813920 0.454002 
-41.142361 0.590957 31.468719 0.388987 0.767223 0.509959 
-41.051689 0.638525 31.448130 0.209506 0.779119 0.590831 
-41.016930 0.650291 31.373619 0.382330 0.817111 0.431455 
-40.973141 0.667838 31.307819 0.141199 0.608458 0.780924 
-40.870930 0.722809 31.298450 0.351796 0.602110 0.716730 
-40.831051 0.737851 31.228870 0.104195 0.787864 0.606971 
-40.760651 0.772444 31.188801 0.165112 0.705932 0.688766 
-40.698559 0.801718 31.140711 0.380215 0.801341 0.461834 
-40.675381 0.806065 31.054970 0.286727 0.797786 0.530402 
-40.601379 0.842975 31.018419 0.180860 0.691498 0.699371 
-40.536160 0.874253 30.973370 0.288174 0.851878 0.437332 
-40.515789 0.876799 30.884871 0.374310 0.803886 0.462232 
-40.456860 0.904047 30.833731 0.436994 0.824720 0.358989 
-40.447910 0.899265 30.734100 0.464995 0.826065 0.318428 
-40.386559 0.928071 30.685310 0.590668 0.767939 0.247752 
-40.427101 0.891559 30.537550 0.798312 0.601233 0.034895 
-40.388790 0.905587 30.466330 0.680536 0.704992 0.199641 
-40.396702 0.889983 30.350161 0.516571 0.700819 0.491943 
-40.319309 0.929063 30.316900 0.432943 0.606224 0.667123 
-40.280151 0.943638 30.246481 0.384677 0.744482 0.545684 
-40.231129 0.964534 30.185640 0.277891 0.491171 0.825547 
-40.127659 1.020347 30.177839 0.206305 0.463368 0.861817 
-40.072960 1.044884 30.122549 0.199530 0.512458 0.835209 
-39.977699 1.095441 30.106831 0.138995 0.363736 0.921073 
-39.904442 1.131895 30.069679 0.363021 0.545788 0.755203 
-39.860909 1.149269 30.003531 0.638029 0.520659 0.567304 
-39.810360 1.171156 29.944229 0.326473 0.424345 0.844599 
-39.719879 1.218654 29.923941 0.458515 0.667648 0.586524 
-39.718651 1.208890 29.816441 0.603241 0.688039 0.403364 
-39.658192 1.237134 29.766830 0.584751 0.669136 0.458610 
-39.642502 1.236646 29.673410 0.382634 0.882446 0.273642 
-39.597832 1.254758 29.608339 0.468298 0.870082 0.153797 
-39.591209 1.248443 29.505989 0.438394 0.863431 0.249595 
-39.550900 1.263746 29.436600 0.631512 0.742499 0.223357 
-39.535042 1.263362 29.343241 0.696130 0.703950 0.140916 
-39.513710 1.266478 29.255199 0.413168 0.808309 0.419439 
-39.444199 1.300531 29.214430 0.300616 0.807191 0.508008 
-39.416630 1.307656 29.132490 0.203497 0.702437 0.682034 
-39.311779 1.364396 29.126431 0.362540 0.492831 0.791001 
-39.273258 1.378552 29.055250 0.466794 0.727832 0.502358 
-39.234509 1.392854 28.984270 0.278974 0.698264 0.659243 
-39.163219 1.428059 28.945299 0.245754 0.718473 0.650694 
-39.109402 1.452036 28.889151 0.114552 0.791319 0.600576 
-39.045429 1.482537 28.842991 0.109265 0.620477 0.776575 
-38.966259 1.522806 28.811831 0.278273 0.688946 0.669267 
-38.919689 1.542132 28.748550 0.155144 0.660047 0.735029 
-38.832142 1.587787 28.725691 0.479168 0.521784 0.705790 
-38.804470 1.594973 28.643780 0.818348 0.487406 0.304534 
-38.778900 1.600807 28.559771 0.493307 0.526161 0.692678 
-38.697029 1.642820 28.531349 0.696539 0.586305 0.413619 
-38.737431 1.606250 28.382130 0.671355 0.644518 0.365895 
-38.662849 1.643579 28.346491 0.652527 0.647401 0.393803 
-38.688549 1.616448 28.211691 0.679864 0.671506 0.294729 
-38.622551 1.648260 28.167570 0.619327 0.722050 0.308348 
-38.643909 1.623909 28.036949 0.651537 0.646193 0.397410 
-38.574039 1.658210 27.996651 0.247821 0.591658 0.767154 
-38.513908 1.686250 27.946699 0.285892 0.700820 0.653542 
-38.454380 1.713904 27.896170 0.167349 0.598783 0.783233 
-38.375702 1.753870 27.864639 0.228902 0.611724 0.757230 
-38.315769 1.781788 27.814529 0.175543 0.671012 0.720366 
-38.251301 1.812620 27.768930 0.267075 0.461525 0.845970 
-38.179459 1.848193 27.730671 0.623161 0.535664 0.569854 
-38.162079 1.848745 27.638300 0.289897 0.769215 0.569445 
-38.080261 1.890744 27.609980 0.001868 0.633534 0.773712 
-37.998291 1.932835 27.581820 0.299853 0.824077 0.480609 
-37.987869 1.928910 27.482491 0.519783 0.772718 0.364324 
-37.930851 1.954957 27.429529 0.568761 0.792706 0.219379 
-37.959042 1.926174 27.291670 0.690640 0.691555 0.211586 
-37.910042 1.947058 27.230671 0.793513 0.521153 0.314224 
-37.913250 1.934344 27.117611 0.684703 0.608892 0.400540 
-37.845039 1.967589 27.075750 0.354145 0.675645 0.646596 
-37.806850 1.981513 27.003941 0.583089 0.661345 0.471837 
-37.763748 1.998593 26.937019 0.312095 0.662008 0.681427 
-37.684361 2.039041 26.906349 0.290841 0.740459 0.605914 
-37.651192 2.049734 26.829510 0.225808 0.652168 0.723663 
-37.558182 2.098951 26.812500 0.059755 0.268682 0.961374 
-37.461739 2.150385 26.798960 0.445323 0.575112 0.686245 
-37.442970 2.151807 26.707710 0.513058 0.600244 0.613579 
-37.366150 2.190602 26.674549 0.440075 0.450414 0.776828 
-37.320740 2.209180 26.609961 0.737023 0.299026 0.606120 
-37.268021 2.232465 26.552691 0.270007 0.301659 0.914384 
-37.172470 2.283338 26.538389 -0.010922 0.516225 0.856384 
-37.092201 2.324370 26.508789 0.091046 0.630235 0.771048 
-37.029980 2.353779 26.461090 0.412331 0.473069 0.778581 
-36.962608 2.386502 26.418579 0.319210 0.283591 0.904257 
-41.628899 0.330693 32.480801 0.039766 0.298998 0.953425 
-41.536530 0.379350 32.461689 0.042736 0.451910 0.891039 
-41.458321 0.418940 32.429039 0.550503 0.647469 0.527001 
-41.446831 0.415808 32.332390 0.540050 0.681635 0.493679 
-41.377579 0.449666 32.291161 0.535012 0.734338 0.417744 
-41.377899 0.438973 32.183140 0.542683 0.743824 0.390155 
-41.313011 0.470036 32.137711 0.306347 0.818722 0.485640 
-41.286671 0.476416 32.055260 0.432554 0.817426 0.380409 
-41.241329 0.494962 31.991051 0.517777 0.744088 0.422186 
-41.214100 0.501903 31.909401 0.605041 0.768671 0.207533 
-41.193909 0.504331 31.820950 0.826562 0.559734 0.059106 
-41.194889 0.493203 31.712099 0.758747 0.622506 0.191805 
-41.155579 0.507872 31.642000 0.249553 0.743358 0.620598 
-41.081341 0.544931 31.605579 0.423289 0.757010 0.497758 
-41.059711 0.548275 31.518431 0.283262 0.795706 0.535364 
-40.987541 0.584007 31.480021 0.413760 0.705889 0.574912 
-40.959301 0.591590 31.399229 0.303279 0.821719 0.482494 
-40.893230 0.623409 31.354940 0.146607 0.695525 0.703385 
-40.827259 0.655173 31.310579 0.127210 0.580422 0.804318 
-40.731979 0.705727 31.294571 0.188367 0.737279 0.648797 
-40.696980 0.717641 31.220289 0.294922 0.733079 0.612875 
-40.617260 0.758221 31.189270 0.474293 0.724703 0.499852 
-40.607090 0.754213 31.090940 0.441615 0.752989 0.487835 
-40.537022 0.788608 31.050591 0.209230 0.600357 0.771877 
-40.471489 0.820098 31.005871 0.361802 0.780124 0.510397 
-40.448441 0.824343 30.919960 0.391601 0.771935 0.500765 
-40.372139 0.862741 30.885691 0.550468 0.730811 0.403609 
-40.394501 0.837859 30.755680 0.651255 0.704829 0.281217 
-40.340012 0.862270 30.700239 0.787609 0.594354 0.162527 
-40.387280 0.821403 30.545931 0.662908 0.722990 0.194522 
-40.330990 0.846960 30.492189 0.461719 0.845482 0.268284 
-40.335140 0.833738 30.379660 0.370422 0.842639 0.390830 
-40.261219 0.870608 30.343060 0.312095 0.730414 0.607530 
-40.216160 0.888962 30.278379 0.372185 0.789595 0.487870 
-40.176971 0.903552 30.207979 0.297938 0.594884 0.746556 
-40.082802 0.953417 30.191130 0.219118 0.416520 0.882326 
-40.021790 0.982012 30.142000 0.169289 0.515493 0.840005 
-39.947021 1.019433 30.106300 0.191119 0.374935 0.907137 
-39.851379 1.070256 30.090990 0.632978 0.325202 0.702554 
-39.833420 1.071214 29.999870 0.756208 0.322427 0.569377 
-39.772671 1.099646 29.950529 0.257296 0.287321 0.922630 
-39.671768 1.153853 29.940430 0.616571 0.446996 0.648101 
-39.667130 1.146258 29.836260 0.597077 0.657710 0.459257 
-39.604599 1.175835 29.788679 0.229789 0.707038 0.668800 
-39.536591 1.208928 29.746460 0.667660 0.651146 0.360887 
-39.536461 1.198437 29.637810 0.702936 0.686141 0.187328 
-39.507099 1.206705 29.557730 0.592175 0.783534 0.188155 
-39.496380 1.203009 29.459379 0.742628 0.666821 0.062084 
-39.487869 1.197881 29.358801 0.548676 0.810940 0.203301 
-39.452801 1.209813 29.284241 0.384820 0.766374 0.514378 
-39.392872 1.237717 29.234070 0.469197 0.721127 0.509735 
-39.365940 1.244421 29.151510 0.457352 0.571610 0.681242 
-39.286091 1.285126 29.120911 0.201060 0.404108 0.892340 
-39.207829 1.324808 29.088770 0.254969 0.716714 0.649085 
-39.164421 1.342102 29.022390 0.110922 0.773477 0.624043 
-39.082458 1.384169 28.993931 0.115245 0.799319 0.589753 
-39.038021 1.402122 28.928570 0.133277 0.840466 0.525217 
-38.977600 1.430348 28.878929 0.284542 0.673042 0.682679 
-38.906651 1.465348 28.839689 0.350846 0.622495 0.699577 
-38.868179 1.479460 28.768431 0.490652 0.524765 0.695617 
-38.798721 1.513503 28.727739 0.651646 0.403347 0.642393 
-38.771690 1.520269 28.645189 0.749627 0.497969 0.435989 
-38.723450 1.540667 28.583561 0.461121 0.475207 0.749363 
-38.659760 1.570999 28.537180 0.796469 0.487786 0.357354 
-38.676109 1.549857 28.411711 0.767936 0.551623 0.325557 
-38.617199 1.577117 28.360600 0.715557 0.576458 0.394556 
-38.622429 1.563121 28.246040 0.629531 0.732715 0.258495 
-38.578960 1.580450 28.179630 0.775047 0.607199 0.174961 
-38.589619 1.562954 28.059610 0.518972 0.721591 0.458231 
-38.505699 1.606302 28.033230 0.298226 0.557482 0.774774 
-38.455151 1.628176 27.973789 0.399051 0.635237 0.661235 
-38.403999 1.650446 27.914970 0.350183 0.518192 0.780288 
-38.325821 1.690102 27.882950 0.218017 0.502077 0.836892 
-38.265209 1.718459 27.833521 0.407685 0.573872 0.710256 
-38.214531 1.740422 27.774229 0.407326 0.440005 0.800301 
-38.135170 1.780843 27.743429 0.254181 0.586993 0.768656 
-38.076931 1.807680 27.691681 0.088539 0.732014 0.675512 
-38.006660 1.842260 27.651899 0.074729 0.630159 0.772862 
-37.929401 1.881335 27.619080 0.328774 0.823600 0.462159 
-37.926079 1.872817 27.512680 0.392195 0.860552 0.325013 
-37.864941 1.901522 27.463831 0.580887 0.803948 0.127427 
-37.910580 1.861467 27.308580 0.732559 0.667179 0.135017 
-37.865021 1.880133 27.244160 0.597831 0.735008 0.319940 
-37.849178 1.879663 27.150089 0.508742 0.735913 0.446781 
-37.786282 1.909498 27.102949 0.430354 0.641719 0.634817 
-37.744019 1.926041 27.035210 0.288165 0.821533 0.491980 
-37.698879 1.944437 26.970341 0.311991 0.701143 0.641140 
-37.623341 1.982411 26.935829 0.512491 0.579539 0.633630 
-37.597111 1.988626 26.852060 0.501446 0.501720 0.704860 
-37.515461 2.030542 26.823700 0.088332 0.236047 0.967719 
-37.416420 2.083668 26.812771 0.687332 0.245280 0.683676 
-37.400558 2.083201 26.718599 0.732669 0.218238 0.644645 
-37.326500 2.120236 26.682699 0.647769 0.354232 0.674474 
-37.316929 2.115710 26.582180 0.668515 0.351657 0.655305 
-37.218521 2.168441 26.570709 -0.016051 0.238108 0.971106 
-37.111450 2.226753 26.567961 0.153343 0.249819 0.956073 
-37.039150 2.262665 26.530380 0.592445 0.235133 0.770534 
-36.995811 2.279908 26.463730 0.552858 0.195278 0.810070 
-36.918060 2.319330 26.431641 0.616430 0.300515 0.727808 
-36.929661 2.301153 26.309771 0.878796 0.475535 -0.039805 
-41.580750 0.265986 32.497219 -0.076914 0.454215 0.887566 
-41.472599 0.324768 32.493240 0.127536 0.519999 0.844592 
-41.421349 0.347095 32.434738 0.659258 0.584462 0.473058 
-41.388809 0.357441 32.358299 0.529244 0.600551 0.599366 
-41.326408 0.386913 32.310501 0.587969 0.675083 0.445596 
-41.321930 0.379277 32.207088 0.368045 0.802309 0.469938 
-41.234459 0.424815 32.183369 0.513882 0.733157 0.445428 
-41.236401 0.413059 32.073730 0.549608 0.743934 0.380122 
-41.171059 0.444417 32.028759 0.538509 0.711758 0.451007 
-41.152740 0.445644 31.938551 0.670124 0.738658 0.072924 
-41.162170 0.429072 31.821600 0.732715 0.678835 0.048076 
-41.131420 0.438256 31.743280 0.338475 0.863924 0.372920 
-41.085899 0.456911 31.679190 0.335827 0.763732 0.551302 
-41.028881 0.482938 31.626181 0.566499 0.634959 0.525267 
-40.994419 0.494499 31.551411 0.531370 0.587489 0.610330 
-40.932640 0.523573 31.502979 0.302996 0.559640 0.771361 
-40.859470 0.559959 31.465570 0.577124 0.555942 0.598211 
-40.836128 0.564387 31.380039 0.494943 0.502643 0.708789 
-40.749550 0.609373 31.355610 0.091881 0.416339 0.904555 
-40.675629 0.646245 31.318970 0.296985 0.637558 0.710858 
-40.632870 0.663127 31.252190 0.414682 0.663177 0.623086 
-40.575180 0.689587 31.199869 0.594162 0.619837 0.512614 
-40.547001 0.697120 31.118980 0.639071 0.528940 0.558400 
-40.482300 0.728083 31.073441 0.153556 0.474150 0.866950 
-40.399899 0.770395 31.045071 0.508301 0.689392 0.516109 
-40.396400 0.762088 30.940220 0.630820 0.603524 0.487673 
-40.329540 0.794441 30.896799 0.744031 0.524984 0.413292 
-40.331902 0.782361 30.786200 0.795719 0.580228 0.173684 
-40.300549 0.791922 30.708290 0.754816 0.646916 0.108405 
-40.311150 0.774552 30.589600 0.422763 0.868190 0.259840 
-40.247650 0.804736 30.542870 0.444282 0.826884 0.344784 
-40.239880 0.799153 30.441971 0.449221 0.859507 0.243819 
-40.201691 0.813091 30.370609 0.381497 0.746995 0.544481 
-40.138691 0.842961 30.323400 0.390897 0.801302 0.452896 
-40.121780 0.843241 30.231319 0.401624 0.669040 0.625367 
-40.031132 0.890867 30.211060 0.037191 0.465215 0.884416 
-39.945400 0.935336 30.186029 0.037633 0.658382 0.751742 
-39.890121 0.960255 30.131340 0.490100 0.531483 0.690889 
-39.840488 0.981545 30.071140 0.599973 0.472003 0.645945 
-39.793522 1.001123 30.008341 0.511287 0.537749 0.670381 
-39.727699 1.032817 29.963949 0.158568 0.392727 0.905882 
-39.641701 1.077468 29.939289 0.480654 0.535619 0.694323 
-39.608139 1.088435 29.863390 0.240954 0.789667 0.564241 
-39.537998 1.122903 29.823259 0.559322 0.726054 0.400005 
-39.540970 1.110399 29.711590 0.724494 0.598136 0.342552 
-39.480450 1.138686 29.662041 0.597802 0.683935 0.418169 
-39.457729 1.142683 29.575460 0.646427 0.735762 0.201956 
-39.441502 1.142507 29.482500 0.538636 0.802588 0.256366 
-39.391510 1.164025 29.422609 0.340106 0.900134 0.272188 
-39.388008 1.155660 29.317101 0.480334 0.805273 0.347583 
-39.325340 1.185326 29.269630 0.475974 0.765217 0.433465 
-39.313110 1.182574 29.172640 0.464744 0.639910 0.611987 
-39.213902 1.235736 29.161070 0.126013 0.413763 0.901621 
-39.145981 1.268780 29.118780 0.141900 0.604044 0.784216 
-39.071571 1.306008 29.082899 0.344897 0.510436 0.787719 
-39.008560 1.335901 29.035820 0.111303 0.581294 0.806045 
-38.927719 1.377263 29.006310 0.433360 0.769959 0.468361 
-38.937321 1.360465 28.887751 0.591546 0.610511 0.526641 
-38.846500 1.408247 28.868080 0.403820 0.618562 0.674025 
-38.825020 1.411431 28.780081 0.629707 0.520272 0.576877 
-38.756439 1.444911 28.738520 0.607404 0.483405 0.630380 
-38.728649 1.452155 28.656719 0.480971 0.734782 0.478291 
-38.684010 1.470232 28.591530 0.430734 0.657814 0.617858 
-38.621319 1.499929 28.544170 0.556284 0.779813 0.287124 
-38.647549 1.472402 28.408930 0.556753 0.734497 0.387996 
-38.568649 1.512528 28.377569 0.441947 0.817263 0.369816 
-38.565659 1.503799 28.271139 0.655740 0.733934 0.177048 
-38.531849 1.514907 28.195181 0.752187 0.643631 0.141257 
-38.528740 1.506252 28.088791 0.529084 0.708113 0.467596 
-38.464069 1.537214 28.043341 0.301231 0.541555 0.784843 
-38.395550 1.570663 28.001730 0.259256 0.721267 0.642308 
-38.355869 1.585542 27.931530 0.313462 0.633655 0.707264 
-38.264351 1.633802 27.912750 0.288119 0.475658 0.831106 
-38.209499 1.658453 27.857611 0.299441 0.692345 0.656501 
-38.163170 1.677620 27.794020 0.217504 0.664451 0.714981 
-38.072830 1.725127 27.774151 0.079590 0.601092 0.795207 
-38.007710 1.756395 27.729240 0.206327 0.659689 0.722661 
-37.945572 1.785744 27.681379 0.078237 0.591530 0.802478 
-37.851791 1.835477 27.665020 0.270144 0.784842 0.557714 
-37.832630 1.837138 27.574400 0.407988 0.891149 0.198492 
-37.809170 1.841574 27.488041 0.709763 0.696696 -0.104171 
-37.851681 1.803498 27.335911 0.595446 0.787562 0.158716 
-37.795021 1.829318 27.282560 0.604865 0.735143 0.306110 
-37.797508 1.817017 27.170219 0.711863 0.579008 0.397494 
-37.735420 1.846335 27.122271 0.178592 0.551640 0.814738 
-37.646320 1.893060 27.101311 0.590272 0.610564 0.528006 
-37.650761 1.879501 26.986931 0.630521 0.582260 0.513242 
-37.583382 1.912230 26.944290 0.606265 0.534808 0.588577 
-37.556961 1.918551 26.860689 0.547677 0.445588 0.708167 
-37.469139 1.964463 26.838511 0.364325 0.197714 0.910042 
-37.417839 1.986826 26.779800 0.697444 0.363089 0.617850 
-37.382610 1.998828 26.704990 0.489108 0.422336 0.763155 
-37.279888 2.054354 26.697800 0.489835 0.531094 0.691376 
-37.261730 2.055346 26.605890 0.467174 0.580708 0.666728 
-37.177029 2.099258 26.580681 0.102973 0.231088 0.967468 
-37.085979 2.147265 26.561880 0.380954 0.162434 0.910214 
-37.031769 2.171509 26.506121 0.513080 0.315589 0.798218 
-36.967339 2.202350 26.460640 0.414586 0.308646 0.856070 
-36.891560 2.240519 26.426580 0.726150 0.412677 0.549913 
-36.883240 2.235161 26.324711 0.618859 0.690777 0.373953 
-36.802349 2.276624 26.295799 0.099687 0.520308 0.848140 
-41.576599 0.183610 32.579109 0.028986 0.685846 0.727170 
-41.504810 0.219103 32.540279 0.065867 0.529904 0.845496 
-41.413288 0.267241 32.520370 0.347939 0.493991 0.796814 
-41.371700 0.283380 32.452621 0.618296 0.656277 0.432447 
-41.345890 0.289400 32.369720 0.524599 0.588793 0.614914 
-41.266949 0.329483 32.337799 0.406633 0.667314 0.623972 
-41.235069 0.339396 32.260700 0.492289 0.741783 0.455422 
-41.196251 0.353756 32.190262 0.802972 0.494443 0.332809 
-41.165871 0.362703 32.111691 0.602168 0.653195 0.459053 
-41.130161 0.375068 32.038231 0.680390 0.561158 0.471351 
-41.081280 0.395874 31.977430 0.715484 0.649952 0.256214 
-41.092239 0.378303 31.859011 0.640799 0.732393 0.230168 
-41.035992 0.403838 31.805269 0.601844 0.684848 0.410814 
-41.028111 0.398344 31.704929 0.709935 0.609577 0.352715 
-40.983952 0.416119 31.639521 0.601202 0.654053 0.459098 
-40.959541 0.421227 31.555059 0.611211 0.533929 0.584244 
-40.887299 0.457020 31.516729 0.601796 0.291896 0.743396 
-40.851269 0.469578 31.443451 0.725063 0.333828 0.602364 
-40.798359 0.492969 31.386471 0.311290 0.428341 0.848306 
-40.708439 0.540117 31.365271 0.039969 0.342114 0.938808 
-40.610321 0.592526 31.352030 0.308867 0.624600 0.717270 
-40.580700 0.600973 31.272560 0.640716 0.547597 0.538164 
-40.520409 0.629109 31.222759 0.693689 0.552219 0.462439 
-40.524620 0.615832 31.110491 0.585631 0.543439 0.601423 
-40.420761 0.671937 31.102890 0.133958 0.419191 0.897961 
-40.355511 0.703263 31.057920 0.602983 0.632484 0.486184 
-40.348209 0.697375 30.956751 0.675324 0.615438 0.406415 
-40.293949 0.721638 30.901110 0.694792 0.630877 0.345338 
-40.297871 0.708533 30.788971 0.674280 0.659487 0.332302 
-40.234341 0.738753 30.742319 0.591061 0.733976 0.334555 
-40.242779 0.722741 30.625719 0.412202 0.876009 0.250396 
-40.193840 0.743585 30.564871 0.474811 0.840212 0.261914 
-40.177761 0.743322 30.472040 0.407233 0.880620 0.242217 
-40.139278 0.757444 30.400980 0.314714 0.794090 0.519978 
-40.074421 0.788516 30.355600 0.434478 0.791459 0.429909 
-40.060638 0.786765 30.260460 0.311930 0.762297 0.567100 
-39.970020 0.834391 30.240191 -0.068779 0.487903 0.870184 
-39.866989 0.889989 30.232040 0.432382 0.582939 0.687916 
-39.849098 0.890884 30.140900 0.502534 0.617140 0.605473 
-39.761890 0.936323 30.117371 0.364366 0.718912 0.591948 
-39.746910 0.935345 30.023350 0.507514 0.641393 0.575365 
-39.662868 0.978748 29.996759 0.086690 0.458919 0.884239 
-39.584850 1.018292 29.964319 0.055899 0.598656 0.799054 
-39.501808 1.061061 29.936819 0.599965 0.580203 0.550824 
-39.488190 1.059201 29.841419 0.800147 0.525540 0.289087 
-39.450291 1.072952 29.769751 0.572049 0.749504 0.333174 
-39.439308 1.069387 29.671709 0.669505 0.654864 0.350594 
-39.383598 1.094587 29.617451 0.608054 0.711712 0.351763 
-39.379360 1.086682 29.512739 0.518368 0.757606 0.396646 
-39.313622 1.118336 29.468309 0.388525 0.857362 0.337607 
-39.325050 1.100352 29.348169 0.572836 0.767036 0.288989 
-39.265671 1.127907 29.297480 0.610021 0.697074 0.376779 
-39.264729 1.117869 29.189390 0.445289 0.678567 0.584179 
-39.176331 1.164100 29.167219 0.155812 0.349674 0.923824 
-39.084000 1.212859 29.148939 0.429416 0.446830 0.784822 
-39.059059 1.218258 29.064400 0.508809 0.420498 0.751195 
-38.955589 1.274194 29.057131 0.055795 0.406215 0.912073 
-38.879749 1.312352 29.022699 0.591980 0.642504 0.486567 
-38.879959 1.301572 28.913380 0.505192 0.666014 0.548823 
-38.793400 1.346632 28.889530 0.527577 0.580577 0.620156 
-38.781780 1.343450 28.791809 0.570562 0.625501 0.532172 
-38.713551 1.376715 28.749901 0.145327 0.616939 0.773477 
-38.625160 1.422963 28.727921 0.319962 0.807921 0.494862 
-38.614071 1.419438 28.629620 0.211237 0.870514 0.444506 
-38.523819 1.466886 28.609510 0.403418 0.866081 0.295225 
-38.536739 1.447899 28.487440 0.466074 0.872601 0.146093 
-38.496792 1.462960 28.417610 0.665442 0.727802 0.165804 
-38.504688 1.447197 28.300409 0.606079 0.792157 0.071807 
-38.483231 1.450339 28.212219 0.649559 0.753436 0.102014 
-38.468102 1.449404 28.117729 0.327260 0.841935 0.429006 
-38.401932 1.481345 28.073790 0.092704 0.694246 0.713742 
-38.316101 1.525953 28.049351 0.145829 0.810985 0.566602 
-38.292690 1.530343 27.963020 0.348996 0.772300 0.530805 
-38.226921 1.562030 27.918711 0.186321 0.513653 0.837523 
-38.124840 1.617117 27.910460 0.144005 0.710066 0.689253 
-38.089432 1.629243 27.836040 0.325420 0.672785 0.664426 
-38.008480 1.670713 27.806850 0.121081 0.567698 0.814284 
-37.948540 1.698650 27.756809 0.095581 0.711940 0.695705 
-37.877350 1.733843 27.717970 0.110689 0.596495 0.794948 
-37.790791 1.778937 27.694441 0.497902 0.514567 0.698079 
-37.757339 1.789800 27.618059 0.762141 0.599012 0.245614 
-37.748459 1.784827 27.517191 0.828760 0.550346 -0.101369 
-37.785530 1.750215 27.370461 0.731123 0.677724 0.078414 
-37.750111 1.762345 27.295959 0.742701 0.650214 0.160055 
-37.758389 1.746288 27.177820 0.586830 0.655746 0.475002 
-37.675240 1.789193 27.150909 0.342850 0.470579 0.813025 
-37.632401 1.806101 27.083759 0.692690 0.543031 0.474655 
-37.592560 1.821073 27.013599 0.448273 0.681161 0.578853 
-37.535370 1.847237 26.960779 0.592421 0.644598 0.483250 
-37.515671 1.849217 26.870470 0.457260 0.617453 0.640051 
-37.436329 1.889663 26.839790 0.155724 0.435093 0.886817 
-37.341461 1.940140 26.824699 0.341016 0.699829 0.627652 
-37.323681 1.940880 26.732441 0.277461 0.730533 0.623968 
-37.235760 1.986875 26.710430 0.387976 0.706756 0.591583 
-37.210911 1.992172 26.625219 0.394344 0.669940 0.629025 
-37.130230 2.033499 26.595980 0.080147 0.420228 0.903872 
-37.044868 2.077852 26.571480 0.056409 0.483910 0.873298 
-36.963120 2.119875 26.543381 0.391483 0.615048 0.684440 
-36.925919 2.133147 26.470560 0.410252 0.528601 0.743152 
-36.847431 2.173071 26.439220 0.436420 0.663963 0.607199 
-36.819630 2.180272 26.356939 0.232984 0.793637 0.562013 
-36.746269 2.216888 26.320471 0.361855 0.775827 0.516870 
-36.727211 2.218440 26.229349 0.577210 0.791007 0.202823 
-41.579811 0.096518 32.653931 0.080272 0.624261 0.777081 
-41.502331 0.135669 32.620548 0.187534 0.692454 0.696662 
-41.458630 0.153150 32.554810 0.374655 0.509997 0.774298 
-41.369991 0.199464 32.532162 0.264251 0.449998 0.853037 
-41.311508 0.226434 32.480610 0.439058 0.767518 0.467060 
-41.294209 0.226986 32.389549 0.421142 0.718768 0.553184 
-41.216702 0.266161 32.356258 0.401414 0.672775 0.621483 
-41.186581 0.274936 32.277481 0.784847 0.561458 0.262259 
-41.166691 0.277144 32.188839 0.607757 0.667188 0.430686 
-41.119640 0.296780 32.126301 0.681500 0.617936 0.392062 
-41.089111 0.305814 32.047859 0.699561 0.541579 0.466161 
-41.050510 0.320024 31.977160 0.794653 0.574089 0.197355 
-41.051231 0.308994 31.868580 0.768301 0.568653 0.293851 
-41.007141 0.326723 31.803129 0.750157 0.535655 0.387735 
-40.983749 0.331171 31.717730 0.645246 0.558296 0.521501 
-40.915501 0.364410 31.675550 0.629244 0.586863 0.509552 
-40.909729 0.357534 31.573099 0.828904 0.415128 0.374950 
-40.862068 0.377557 31.511061 0.539241 0.382133 0.750462 
-40.795811 0.409520 31.466970 0.266215 0.629844 0.729675 
-40.740421 0.434503 31.412390 0.211797 0.550040 0.807835 
-40.649368 0.482392 31.392290 -0.030376 0.372352 0.927594 
-40.555729 0.531950 31.374741 0.528072 0.563042 0.635708 
-40.548100 0.526262 31.273991 0.669069 0.521051 0.529955 
-40.476360 0.561748 31.235270 0.533546 0.632510 0.561481 
-40.452240 0.566657 31.150450 0.258159 0.752545 0.605830 
-40.376099 0.604976 31.116011 0.151209 0.520508 0.840362 
-40.295639 0.646073 31.085779 0.416264 0.775619 0.474489 
-40.296951 0.634634 30.976259 0.469945 0.797864 0.377577 
-40.226051 0.669593 30.936769 0.483206 0.818402 0.311015 
-40.237881 0.651384 30.816959 0.441028 0.859306 0.259014 
-40.186260 0.673955 30.758739 0.397584 0.826375 0.398787 
-40.137489 0.694689 30.697750 0.461651 0.823904 0.328727 
-40.116261 0.697720 30.609970 0.401896 0.873070 0.276095 
-40.076038 0.712963 30.540649 0.409469 0.894287 0.180515 
-40.070789 0.705720 30.437269 0.473399 0.798331 0.372239 
-40.008541 0.735120 30.389360 0.383469 0.789087 0.479889 
-39.981541 0.741855 30.307119 0.313296 0.755462 0.575432 
-39.905628 0.780038 30.272520 0.125414 0.443484 0.887465 
-39.830639 0.817631 30.237049 0.406890 0.565863 0.717105 
-39.787392 0.834818 30.170641 0.315235 0.612679 0.724743 
-39.706371 0.876291 30.141081 0.452378 0.661913 0.597684 
-39.690262 0.876021 30.048170 0.310899 0.776737 0.547742 
-39.612621 0.915327 30.015341 0.056987 0.570258 0.819487 
-39.517181 0.966087 29.999941 0.461056 0.501956 0.731756 
-39.502861 0.964662 29.905239 0.853096 0.357576 0.379957 
-39.453579 0.985726 29.844709 0.581165 0.505007 0.638134 
-39.401951 1.008306 29.786480 0.743342 0.544740 0.388201 
-39.385811 1.008047 29.693489 0.634134 0.660559 0.401915 
-39.343300 1.024754 29.626310 0.520153 0.781333 0.344905 
-39.321510 1.028124 29.538790 0.389375 0.755399 0.527030 
-39.237190 1.071736 29.512590 0.547807 0.727093 0.413815 
-39.267971 1.041274 29.373470 0.741096 0.634025 0.220884 
-39.214809 1.064828 29.316681 0.672839 0.567548 0.474528 
-39.183559 1.074286 29.238380 0.332503 0.762858 0.554518 
-39.132889 1.096239 29.179131 0.203121 0.565428 0.799395 
-39.040710 1.144922 29.160721 0.119919 0.643092 0.756342 
-38.981579 1.172328 29.109819 0.034747 0.697100 0.716131 
-38.902180 1.212782 29.078871 0.127668 0.529099 0.838901 
-38.826641 1.250760 29.044161 0.688479 0.554904 0.466988 
-38.827320 1.239647 28.934370 0.581018 0.580700 0.570268 
-38.746319 1.281143 28.905050 0.442972 0.605369 0.661290 
-38.717251 1.289186 28.824530 0.188043 0.814989 0.548117 
-38.638790 1.329049 28.792740 0.152874 0.667541 0.728711 
-38.571880 1.361471 28.749559 0.258629 0.670132 0.695726 
-38.510429 1.390384 28.701019 0.591505 0.582708 0.557291 
-38.477699 1.400786 28.624090 0.851467 0.468394 0.235821 
-38.480881 1.388050 28.511650 0.790155 0.598470 0.132245 
-38.452881 1.395398 28.429991 0.673875 0.686770 0.272468 
-38.423100 1.403901 28.350090 0.493211 0.854368 0.163703 
-38.413799 1.399194 28.249870 0.469371 0.857646 0.210080 
-38.365101 1.419881 28.188641 0.316908 0.865817 0.387209 
-38.337471 1.426987 28.106541 0.175577 0.757652 0.628599 
-38.231331 1.484699 28.102249 0.399450 0.702808 0.588643 
-38.215340 1.484304 28.008591 0.636116 0.662583 0.395399 
-38.165020 1.506034 27.948959 0.196391 0.435102 0.878702 
-38.062130 1.561663 27.941530 0.521907 0.459102 0.718915 
-38.045959 1.561378 27.848000 0.436137 0.558624 0.705495 
-37.942780 1.617198 27.840910 -0.078430 0.488145 0.869231 
-37.849510 1.666632 27.824030 0.382393 0.654630 0.652101 
-37.830662 1.668076 27.733141 0.522139 0.589947 0.615900 
-37.763069 1.700952 27.690741 0.634475 0.465596 0.616978 
-37.735050 1.708300 27.608931 0.780997 0.568525 0.258502 
-37.713341 1.711584 27.520830 0.850050 0.521442 -0.074247 
-37.735409 1.686618 27.389059 0.623231 0.763048 0.171294 
-37.689232 1.705677 27.325270 0.568215 0.802711 0.181070 
-37.694820 1.691336 27.209829 0.470230 0.786596 0.400188 
-37.628670 1.723280 27.165951 0.317336 0.598354 0.735711 
-37.563278 1.754738 27.121330 0.307424 0.785526 0.537065 
-37.537460 1.760657 27.037170 0.474058 0.745532 0.468456 
-37.478241 1.788131 26.986380 0.321660 0.784678 0.529920 
-37.438148 1.803263 26.916479 0.198325 0.822918 0.532421 
-37.377159 1.831881 26.867460 0.080568 0.616035 0.783588 
-37.288010 1.878681 26.846661 0.030046 0.717206 0.696213 
-37.229229 1.905877 26.795469 0.102542 0.815553 0.569524 
-37.169441 1.933726 26.745291 0.353064 0.815681 0.458268 
-37.141659 1.940908 26.663031 0.167789 0.838229 0.518863 
-37.067600 1.977971 26.627171 -0.060535 0.663702 0.745544 
-36.966679 2.032389 26.618299 0.156204 0.614897 0.772983 
-36.921211 2.050992 26.553789 0.301914 0.735224 0.606872 
-36.860260 2.079597 26.504820 0.063815 0.759609 0.647241 
-36.785351 2.117218 26.469900 0.038961 0.773032 0.633169 
-36.717991 2.149970 26.427410 0.223841 0.856838 0.464462 
-36.687389 2.158971 26.347950 0.494366 0.826341 0.269746 
-36.658619 2.166785 26.266621 0.277132 0.943154 0.183464 
-36.643219 2.165966 26.171810 0.525392 0.850755 0.013386 
-36.623230 2.168103 26.081591 0.504211 0.845018 0.178089 
-41.578751 0.012172 32.732849 0.330180 0.516746 0.789908 
-41.514980 0.042537 32.686329 0.103877 0.571266 0.814165 
-41.432850 0.084683 32.657410 0.336532 0.727574 0.597814 
-41.410439 0.088498 32.571281 0.402707 0.631274 0.662812 
-41.317471 0.137608 32.552792 0.055979 0.487343 0.871415 
-41.238171 0.177939 32.521210 0.490440 0.684907 0.538861 
-41.220921 0.178453 32.430119 0.440928 0.729284 0.523190 
-41.153992 0.210846 32.386688 0.578448 0.659069 0.480652 
-41.148540 0.203775 32.284222 0.511144 0.769424 0.383038 
-41.075008 0.240410 32.247139 0.403225 0.843482 0.354893 
-41.079269 0.227101 32.135269 0.581360 0.785798 0.211048 
-41.036659 0.243883 32.068451 0.519851 0.738272 0.429779 
-40.991699 0.262168 32.003868 0.490735 0.839836 0.232067 
-41.000198 0.246123 31.887810 0.565582 0.799560 0.202039 
-40.953232 0.265699 31.825130 0.525014 0.803798 0.279765 
-40.946499 0.259428 31.723660 0.684770 0.569642 0.454531 
-40.882771 0.289772 31.677130 0.697743 0.564591 0.440898 
-40.884560 0.278025 31.567390 0.697550 0.541678 0.469051 
-40.808460 0.316310 31.532780 0.133225 0.498641 0.856509 
-40.728760 0.356921 31.501690 0.227805 0.682814 0.694169 
-40.689049 0.371832 31.431971 0.270057 0.608257 0.746386 
-40.590691 0.424434 31.418949 -0.015878 0.415854 0.909293 
-40.510620 0.465285 31.388281 0.418825 0.707213 0.569593 
-40.494450 0.465071 31.295799 0.474923 0.714773 0.513369 
-40.422329 0.500810 31.257441 0.224959 0.725628 0.650275 
-40.374599 0.520882 31.195499 0.096126 0.826597 0.554524 
-40.311520 0.550818 31.148420 0.064308 0.699955 0.711286 
-40.224812 0.595948 31.124269 0.409116 0.764657 0.497919 
-40.214409 0.592020 31.026119 0.357006 0.874223 0.329060 
-40.164982 0.613176 30.965799 0.399654 0.837184 0.373363 
-40.125721 0.627797 30.895611 0.414155 0.887917 0.200200 
-40.119732 0.621025 30.793091 0.565083 0.809292 0.160398 
-40.094250 0.626783 30.709480 0.517162 0.772867 0.367722 
-40.042259 0.649588 30.651621 0.522047 0.742915 0.418981 
-40.010670 0.659276 30.573910 0.632613 0.752733 0.182191 
-40.009979 0.649081 30.466101 0.572902 0.719256 0.393006 
-39.943081 0.681471 30.422720 0.573550 0.638498 0.513186 
-39.928692 0.680088 30.328199 0.462847 0.678010 0.571030 
-39.853939 0.717536 30.292480 0.135443 0.486525 0.863104 
-39.767170 0.762719 30.268511 0.248104 0.691928 0.677998 
-39.737759 0.770993 30.188601 0.318717 0.690051 0.649806 
-39.648720 0.817642 30.166880 0.139739 0.667100 0.731745 
-39.583752 0.848804 30.121691 0.326051 0.754530 0.569539 
-39.548630 0.860761 30.047350 0.244652 0.690989 0.680206 
-39.474121 0.898063 30.011499 0.495791 0.687730 0.530300 
-39.452869 0.901080 29.923571 0.470254 0.781054 0.410873 
-39.402458 0.922872 29.864149 0.483199 0.733912 0.477380 
-39.369251 0.933593 29.787889 0.523694 0.752325 0.399689 
-39.325481 0.951110 29.721960 0.335898 0.754048 0.564433 
-39.248718 0.989869 29.688351 0.376755 0.829936 0.411415 
-39.264500 0.969032 29.564020 0.561613 0.715753 0.415077 
-39.192379 1.004808 29.525869 0.702267 0.621350 0.347484 
