-36.112640 -9.532098 46.048679 0.166389 0.030543 0.985587 
-36.005959 -9.470750 46.043621 0.116321 -0.008497 0.993175 
-35.914101 -9.419764 46.024940 0.618360 0.183418 0.764192 
-35.879349 -9.408744 45.953629 0.679056 0.441570 0.586428 
-35.826260 -9.384885 45.899239 0.762227 0.420444 0.492175 
-35.811180 -9.387638 45.809738 0.885409 0.464157 0.024669 
-35.813740 -9.402745 45.703918 0.827516 0.538252 -0.159691 
-35.875210 -9.459105 45.543610 0.724938 0.672319 -0.149843 
-35.874790 -9.472142 45.440411 0.649728 0.728383 -0.217510 
-35.906750 -9.507857 45.307220 0.507749 0.861232 0.021689 
-35.858990 -9.487754 45.247749 0.303609 0.940045 0.155362 
-35.863232 -9.504068 45.140121 0.385575 0.847165 0.365572 
-35.789749 -9.465949 45.104450 0.293154 0.744068 0.600353 
-35.748199 -9.450199 45.039188 0.507733 0.721130 0.471359 
-35.704639 -9.433031 44.975811 0.596472 0.606519 0.525695 
-35.662201 -9.416657 44.911369 0.500003 0.761065 0.413252 
-35.645309 -9.418189 44.823200 0.430480 0.661816 0.613749 
-35.561249 -9.372653 44.797390 0.192004 0.387555 0.901629 
-35.495319 -9.339814 44.754780 0.367605 0.453092 0.812142 
-35.433208 -9.309654 44.708611 0.206443 0.432477 0.877693 
-35.350731 -9.265214 44.681419 0.050043 0.259790 0.964368 
-35.246960 -9.205842 44.674068 0.309648 0.434625 0.845706 
-35.204140 -9.189201 44.610001 0.514005 0.610972 0.602090 
-35.147469 -9.162845 44.558849 0.247593 0.706615 0.662867 
-35.081810 -9.130183 44.516071 0.380388 0.853478 0.356202 
-35.092571 -9.151108 44.402039 0.572478 0.799641 0.181224 
-35.040249 -9.127804 44.346821 0.616678 0.778625 0.115980 
-35.075062 -9.165609 44.210251 0.809057 0.525811 -0.262583 
-35.077419 -9.180661 44.103920 0.745557 0.641932 -0.179076 
-35.112598 -9.218740 43.966869 0.818798 0.548887 -0.168204 
-35.101860 -9.224616 43.872669 0.584825 0.730561 0.352506 
-35.054520 -9.204823 43.812672 0.482277 0.478000 0.734115 
-34.981701 -9.167150 43.776508 0.224069 0.414695 0.881942 
-34.915039 -9.133789 43.734612 0.433416 0.379669 0.817314 
-34.856380 -9.106050 43.685219 0.281124 0.229622 0.931796 
-34.761570 -9.052935 43.669731 0.095083 0.198981 0.975380 
-34.675072 -9.005645 43.646488 0.444807 0.513950 0.733486 
-34.648861 -9.000675 43.566711 0.397442 0.567122 0.721396 
-34.545990 -8.941886 43.558880 -0.023907 0.449954 0.892732 
-34.472752 -8.903899 43.523258 0.378233 0.660093 0.649012 
-34.439911 -8.894270 43.449711 0.294719 0.637338 0.711998 
-34.346550 -8.842155 43.433029 0.081018 0.398261 0.913687 
-34.259819 -8.794683 43.410160 0.433241 0.741407 0.512463 
-34.267200 -8.813301 43.298771 0.765152 0.642339 0.044077 
-34.247189 -8.812689 43.213112 0.827375 0.558894 -0.055573 
-34.273830 -8.844852 43.083469 0.906572 0.420514 0.035997 
-34.243351 -8.836890 43.007610 0.956961 0.288695 0.029669 
-34.276829 -8.873874 42.871410 0.971734 0.236050 -0.003675 
-34.253311 -8.870811 42.788910 0.930614 0.342044 0.130247 
-34.250401 -8.882238 42.686932 0.756212 0.481465 0.443097 
-34.191521 -8.854338 42.637760 0.498065 0.635129 0.590375 
-34.152618 -8.840481 42.569710 0.222941 0.703901 0.674404 
-34.074581 -8.799113 42.538651 -0.051875 0.484625 0.873182 
-33.969471 -8.738717 42.533218 0.266380 0.717324 0.643807 
-33.946621 -8.736132 42.450020 0.446627 0.705780 0.549909 
-33.882660 -8.704654 42.405701 0.220022 0.444592 0.868290 
-33.797562 -8.658309 42.381420 0.578597 0.565188 0.588038 
-33.786900 -8.664307 42.286621 0.568585 0.642142 0.514163 
-33.721809 -8.632033 42.243401 0.223880 0.516856 0.826280 
-33.652969 -8.597116 42.203751 0.581964 0.561467 0.588279 
-33.636570 -8.599081 42.114349 0.577039 0.393959 0.715418 
-33.539711 -8.544451 42.101311 0.270112 0.356043 0.894580 
-33.483459 -8.518387 42.049740 0.715985 0.586176 0.379161 
-33.479179 -8.528882 41.948792 0.818909 0.564694 0.102508 
-33.446041 -8.519079 41.875229 0.743317 0.667522 0.043512 
-33.486752 -8.561246 41.731400 0.761692 0.646084 -0.048999 
-33.462891 -8.557979 41.648941 0.755897 0.648712 0.088276 
-33.453171 -8.564668 41.552990 0.665378 0.680131 0.307722 
-33.400879 -8.541403 41.497559 0.682938 0.664412 0.303565 
-33.406670 -8.559011 41.386780 0.703165 0.569537 0.425659 
-33.347408 -8.530843 41.337971 0.637536 0.569340 0.519038 
-33.331989 -8.533530 41.247349 0.583563 0.508485 0.633164 
-33.250240 -8.489524 41.220009 0.088566 0.288324 0.953428 
-33.152882 -8.434527 41.207611 -0.035030 0.289678 0.956483 
-39.595139 -10.910600 51.773571 0.527730 0.813256 -0.245185 
-39.626751 -10.945610 51.644611 0.662693 0.663503 -0.347277 
-39.657452 -10.980000 51.516380 0.727242 0.685943 -0.024505 
-39.643639 -10.983460 51.427380 0.844891 0.532671 0.049203 
-39.637100 -10.991970 51.331940 0.599439 0.600045 0.529736 
-39.566101 -10.955660 51.293442 0.429991 0.355896 0.829726 
-39.501011 -10.923460 51.249729 0.697704 0.414720 0.584137 
-39.484699 -10.925190 51.162861 0.642389 0.379267 0.665952 
-39.406479 -10.883850 51.130791 0.226930 0.259491 0.938705 
-39.322151 -10.838270 51.104149 0.382749 0.468625 0.796174 
-39.279919 -10.821970 51.040230 0.409090 0.499512 0.763632 
-39.198109 -10.778120 51.011410 -0.005335 0.402714 0.915310 
-39.099689 -10.722720 50.997349 -0.101920 0.508259 0.855152 
-39.011711 -10.674580 50.974060 0.146362 0.725203 0.672799 
-38.971489 -10.659670 50.908390 0.272613 0.646582 0.712471 
-38.896049 -10.620250 50.874020 0.210195 0.511169 0.833381 
-38.828941 -10.586620 50.832260 0.561828 0.730186 0.388815 
-38.827438 -10.598670 50.732151 0.665960 0.699539 0.259118 
-38.784420 -10.581810 50.668961 0.859440 0.487467 0.154076 
-38.921310 -10.703310 50.343979 0.902992 0.379866 -0.200765 
-38.932270 -10.724060 50.232552 0.897276 0.392901 -0.201310 
-38.962238 -10.758050 50.104118 0.740984 0.510055 0.436791 
-38.885269 -10.717570 50.071030 0.513900 0.576821 0.634969 
-38.856682 -10.710780 49.994781 0.323068 0.698404 0.638638 
-38.782730 -10.672410 49.959011 0.111906 0.526055 0.843056 
-38.699650 -10.627670 49.931431 0.114279 0.623441 0.773474 
-38.641750 -10.600460 49.881371 0.205510 0.728752 0.653212 
-38.586430 -10.575060 49.829010 0.187048 0.557889 0.808562 
-38.476940 -10.511900 49.825130 0.105653 0.308634 0.945295 
-38.400742 -10.471940 49.791489 0.549434 0.474247 0.687904 
-38.376560 -10.468230 49.711288 0.631052 0.394219 0.668106 
-38.306259 -10.432380 49.672390 0.735216 0.267300 0.622903 
-38.283958 -10.429980 49.590469 0.934229 0.240101 0.263755 
-38.255070 -10.422990 49.514450 0.749508 0.276696 0.601396 
-38.203560 -10.400230 49.458710 0.783098 0.415408 0.462811 
-38.184132 -10.399840 49.374161 0.861338 0.417552 0.289390 
-38.155041 -10.392720 49.298260 0.928039 0.323992 0.183775 
-38.163300 -10.411640 49.188782 0.909331 0.304551 0.283490 
-38.115200 -10.391270 49.129921 0.711256 0.572186 0.408312 
-38.097519 -10.392110 49.043690 0.561069 0.775322 0.289962 
-38.056068 -10.376380 48.978840 0.529372 0.662565 0.529880 
-38.005630 -10.354370 48.922070 0.827644 0.490852 0.272158 
-38.033699 -10.387140 48.794559 0.780121 0.400516 0.480623 
-37.949169 -10.341350 48.768490 0.632322 0.550592 0.544993 
-37.952080 -10.356570 48.663589 0.588368 0.613823 0.526351 
-37.873878 -10.315210 48.631821 0.208431 0.373669 0.903841 
-37.796650 -10.274510 48.599220 0.498377 0.498833 0.709074 
-37.765160 -10.265740 48.525318 0.364365 0.570419 0.736112 
-37.674290 -10.215520 48.505070 -0.008003 0.359517 0.933104 
-37.572300 -10.157530 48.494919 -0.091357 0.465703 0.880213 
-37.482769 -10.108240 48.473541 -0.115310 0.665810 0.737157 
-37.405319 -10.067370 48.441261 0.075290 0.665518 0.742574 
-37.332821 -10.029960 48.404510 0.314067 0.635491 0.705346 
-37.281769 -10.007520 48.348358 0.696994 0.667111 0.262985 
-37.308041 -10.039070 48.222118 0.830788 0.490759 -0.262577 
-37.326679 -10.065310 48.102730 0.800185 0.589539 -0.110218 
-37.326542 -10.078430 48.000320 0.928010 0.324188 -0.183575 
-37.371399 -10.122990 47.857010 0.842175 0.522195 -0.134361 
-37.354099 -10.124140 47.770069 0.832985 0.548360 -0.073745 
-37.379471 -10.155110 47.644329 0.696889 0.626201 0.349598 
-37.314121 -10.122700 47.601009 0.330747 0.443101 0.833227 
-37.241119 -10.084940 47.564659 0.648861 0.376870 0.661021 
-37.212448 -10.078160 47.487991 0.516515 0.273470 0.811435 
-37.121239 -10.027670 47.468239 0.228926 0.100431 0.968249 
-37.042339 -9.985792 47.437309 0.740177 0.168436 0.650974 
-37.020031 -9.983454 47.354839 0.553811 0.364435 0.748652 
-36.933128 -9.935968 47.331249 0.480709 0.491985 0.725857 
-36.909512 -9.932718 47.249939 0.626089 0.675666 0.389215 
-36.868999 -9.917662 47.184029 0.261179 0.721175 0.641633 
-36.790001 -9.875700 47.153271 0.343442 0.736120 0.583245 
-36.761230 -9.868852 47.076630 0.408817 0.697691 0.588300 
-36.699509 -9.838967 47.030102 0.262847 0.395372 0.880109 
-36.601070 -9.783397 47.017170 0.569094 0.557519 0.604405 
-36.611382 -9.803885 46.904758 0.895786 0.420723 0.143387 
-36.573009 -9.790329 46.836868 0.851184 0.488370 0.192304 
-36.617039 -9.834414 46.693481 0.852894 0.521143 0.031327 
-36.580009 -9.821804 46.624298 0.880368 0.461264 0.110398 
-36.615829 -9.860162 46.488300 0.943144 0.301862 0.139135 
-36.572060 -9.842840 46.425251 0.941292 0.241424 0.235976 
-36.580002 -9.861709 46.314720 0.730013 0.472901 0.493402 
-36.505260 -9.822714 46.280090 0.366901 0.418531 0.830792 
-36.451511 -9.798413 46.226181 0.542258 0.475442 0.692756 
-36.399281 -9.775175 46.170879 0.348419 0.478340 0.806098 
-36.325340 -9.736738 46.135540 0.020711 0.340812 0.939903 
-36.220219 -9.676475 46.128922 0.062456 0.394021 0.916977 
-36.154690 -9.643914 46.085911 0.231347 0.412816 0.880944 
-36.075100 -9.601516 46.055851 0.097302 0.228029 0.968780 
-35.966782 -9.538988 46.052311 0.023117 0.185399 0.982391 
-35.879551 -9.491231 46.029369 0.399593 0.455539 0.795494 
-35.842171 -9.478374 45.960491 0.682246 0.494468 0.538555 
-35.796539 -9.459743 45.899200 0.618953 0.578032 0.531768 
-35.758301 -9.446288 45.831089 0.733752 0.662820 0.149261 
-35.761261 -9.461695 45.724899 0.756201 0.631811 -0.170218 
-35.785271 -9.491862 45.599190 0.652230 0.729815 -0.204857 
-35.781712 -9.502710 45.498932 0.654943 0.728072 -0.202390 
-35.824020 -9.545717 45.356171 0.371110 0.927087 0.052795 
-35.772800 -9.523180 45.299931 0.339132 0.937045 0.083290 
-35.796841 -9.553396 45.173962 0.437005 0.864695 0.247648 
-35.735271 -9.523611 45.127270 0.598833 0.668370 0.441226 
-35.720501 -9.526631 45.037201 0.843407 0.415724 0.340350 
-35.681049 -9.512361 44.969978 0.542830 0.427480 0.722908 
-35.606930 -9.473782 44.934940 0.501551 0.656400 0.563548 
-35.588409 -9.474175 44.848289 0.446542 0.667601 0.595743 
-35.512711 -9.434484 44.814739 0.175219 0.458668 0.871161 
-35.436138 -9.394180 44.782009 0.243763 0.558777 0.792684 
-35.382839 -9.370196 44.727661 0.276900 0.428681 0.859976 
-35.280190 -9.311591 44.719238 -0.036987 0.323968 0.945345 
-35.198280 -9.267534 44.691559 0.307390 0.442786 0.842290 
-35.138248 -9.238818 44.643532 0.452374 0.569368 0.686424 
-35.094120 -9.221256 44.580700 0.281868 0.580141 0.764190 
-35.009541 -9.175312 44.555569 0.433109 0.785523 0.442008 
-35.019081 -9.195411 44.442680 0.736285 0.676293 0.022641 
-34.996731 -9.193132 44.359501 0.867887 0.492295 -0.066469 
-35.044800 -9.240275 44.210560 0.858563 0.491453 -0.146094 
-35.028912 -9.242545 44.121250 0.786222 0.606318 -0.119304 
-35.070080 -9.284869 43.978600 0.737233 0.674315 -0.042270 
-35.038979 -9.276466 43.903439 0.686677 0.690169 0.228344 
-35.028690 -9.282681 43.808781 0.571759 0.500107 0.650373 
-34.932571 -9.228640 43.794430 0.261000 0.449514 0.854293 
-34.886551 -9.209768 43.733200 0.472714 0.462175 0.750290 
-34.816898 -9.174307 43.694111 0.155788 0.326937 0.932117 
-34.712379 -9.114357 43.687721 -0.010672 0.252945 0.967422 
-34.618420 -9.061812 43.671478 0.276489 0.535810 0.797786 
-34.569801 -9.041105 43.612751 0.154219 0.574135 0.804106 
-34.479019 -8.990789 43.593578 -0.041844 0.487130 0.872327 
-34.398071 -8.947372 43.565220 0.203041 0.760024 0.617364 
-34.362011 -8.935490 43.494709 0.261124 0.749420 0.608427 
-34.294891 -8.901787 43.453381 0.098006 0.465007 0.879865 
-34.197941 -8.847116 43.440140 0.441669 0.732090 0.518626 
-34.208679 -8.868117 43.325588 0.589705 0.807575 0.008437 
-34.185459 -8.865267 43.242950 0.627047 0.769357 -0.122075 
-34.229912 -8.909976 43.096550 0.759117 0.626193 -0.177833 
-34.232059 -8.924963 42.989922 0.789022 0.584113 -0.190409 
-34.246578 -8.948655 42.871578 0.842092 0.538983 0.019454 
-34.220718 -8.943964 42.791271 0.758253 0.613195 0.221461 
-34.198318 -8.941706 42.707680 0.518332 0.673046 0.527580 
-34.131119 -8.907950 42.666370 0.254561 0.698241 0.669073 
-34.084530 -8.888692 42.605598 0.198450 0.689121 0.696944 
-34.001980 -8.844135 42.578831 0.015177 0.414404 0.909966 
-33.912209 -8.794499 42.558910 0.588607 0.457335 0.666623 
-33.894169 -8.795310 42.471161 0.635099 0.522859 0.568567 
-33.830410 -8.763974 42.426651 0.409930 0.303672 0.860082 
-33.765018 -8.731478 42.383709 0.690708 0.362431 0.625753 
-33.735771 -8.724417 42.306519 0.398118 0.646710 0.650591 
-33.663570 -8.687127 42.270050 0.183250 0.610391 0.770611 
-33.604259 -8.658904 42.221371 0.330222 0.807173 0.489311 
-33.577412 -8.653531 42.141891 0.143930 0.787446 0.599344 
-33.478531 -8.597465 42.130779 0.211085 0.696467 0.685840 
-33.440479 -8.584209 42.061932 0.837925 0.514808 0.181257 
-33.435169 -8.594001 41.961941 0.889103 0.441312 0.121406 
-33.417961 -8.595417 41.873241 0.929745 0.368113 -0.008185 
-33.416481 -8.607919 41.769531 0.799893 0.599380 -0.030260 
-33.420219 -8.624096 41.660809 0.815479 0.578700 0.009982 
-33.406818 -8.628211 41.568359 0.797289 0.545607 0.258154 
-33.377140 -8.620867 41.491390 0.883024 0.423647 0.201969 
-33.360950 -8.623026 41.401539 0.624162 0.552009 0.552908 
-33.291309 -8.587532 41.362659 0.553100 0.617309 0.559473 
-33.273430 -8.588507 41.274380 0.486472 0.613820 0.621748 
-33.190960 -8.543980 41.247742 -0.015916 0.367553 0.929866 
-33.095520 -8.490313 41.233521 -0.048805 0.342670 0.938187 
-39.615891 -11.046310 51.527309 0.841173 0.531326 0.100599 
-39.603470 -11.050750 51.437080 0.823386 0.560851 0.086492 
-39.584099 -11.050350 51.352970 0.726680 0.428219 0.537182 
-39.540989 -11.033440 51.289810 0.551439 0.315836 0.772116 
-39.481190 -11.004910 51.241428 0.786777 0.250055 0.564318 
-39.443981 -10.992110 51.173038 0.561724 0.284497 0.776870 
-39.368111 -10.952400 51.138889 0.170332 0.237232 0.956404 
-39.276459 -10.901700 51.118752 0.447762 0.393884 0.802723 
-39.237808 -10.887890 51.051659 0.411761 0.406949 0.815381 
-39.141361 -10.833850 51.035820 -0.118276 0.336448 0.934245 
-39.031971 -10.770790 51.031502 -0.020105 0.396859 0.917660 
-38.948879 -10.726040 51.003891 0.214734 0.681490 0.699614 
-38.912960 -10.714120 50.934422 0.249155 0.720610 0.647026 
-38.827049 -10.667410 50.909351 0.147375 0.646744 0.748334 
-38.778561 -10.646740 50.851040 0.601840 0.746563 0.283608 
-38.773289 -10.656170 50.754299 0.897323 0.423155 -0.125502 
-38.811119 -10.695630 50.619160 0.940973 0.192425 -0.278464 
-38.842159 -10.730380 50.489971 0.859054 0.386953 -0.335102 
-38.846710 -10.638270 50.512001 0.959375 0.109581 -0.259985 
-38.895870 -10.780920 50.340530 0.915446 0.363031 -0.173690 
-38.889191 -10.789400 50.244820 0.881196 0.465207 -0.084122 
-38.900261 -10.810260 50.133228 0.608657 0.666435 0.430583 
-38.829559 -10.774130 50.094559 0.375705 0.552586 0.743972 
-38.775002 -10.749260 50.041500 0.254300 0.618000 0.743913 
-38.707939 -10.715670 49.999611 0.124113 0.498807 0.857781 
-38.622589 -10.669330 49.974072 0.135838 0.511637 0.848396 
-38.552799 -10.633830 49.934650 0.575166 0.578904 0.577974 
-38.535599 -10.635000 49.848221 0.476745 0.502532 0.721232 
-38.454109 -10.591340 49.819279 0.180746 0.272319 0.945078 
-38.372009 -10.547260 49.790932 0.501450 0.500340 0.705838 
-38.343090 -10.540250 49.714958 0.690054 0.422464 0.587665 
-38.282761 -10.511350 49.667130 0.776140 0.365417 0.513885 
-38.274960 -10.519070 49.572201 0.848695 0.398533 0.347689 
-38.228081 -10.499550 49.512291 0.568296 0.373571 0.733133 
-38.161259 -10.466110 49.470291 0.791730 0.380385 0.477987 
-38.164669 -10.481660 49.365231 0.849377 0.400497 0.343745 
-38.113590 -10.459210 49.309078 0.686653 0.663154 0.297885 
-38.125610 -10.480780 49.196209 0.550810 0.741345 0.383426 
-38.046959 -10.439090 49.164822 0.516988 0.702183 0.489554 
-38.031731 -10.441660 49.076401 0.872014 0.476456 0.112165 
-38.016232 -10.444040 48.988190 0.901393 0.282483 0.328167 
-37.991638 -10.440070 48.908138 0.928962 0.348665 0.124348 
-37.985001 -10.448640 48.811890 0.606318 0.572878 0.551533 
-37.914509 -10.412650 48.773170 0.659692 0.492548 0.567629 
-37.891171 -10.409570 48.691929 0.514896 0.638365 0.572165 
-37.830872 -10.380680 48.644039 0.276604 0.418169 0.865231 
-37.748402 -10.336320 48.616161 0.311911 0.537635 0.783365 
-37.697868 -10.314250 48.559460 0.199599 0.599666 0.774959 
-37.618710 -10.272190 48.528648 -0.061628 0.409831 0.910077 
-37.503029 -10.204620 48.530891 -0.141651 0.395985 0.907266 
-37.403969 -10.148660 48.518139 0.178079 0.583136 0.792617 
-37.362652 -10.133010 48.453178 0.682545 0.327157 0.653529 
-37.302212 -10.104020 48.405521 0.668327 0.213414 0.712596 
-37.265541 -10.091620 48.336342 0.910270 0.371484 0.182776 
-37.268200 -10.106710 48.231480 0.889283 0.414586 -0.193118 
-37.293079 -10.137340 48.106411 0.854491 0.492368 -0.165588 
-37.301311 -10.156330 47.996399 0.837407 0.488905 -0.244381 
-37.324619 -10.185870 47.872639 0.800658 0.576658 -0.162516 
-37.328339 -10.201730 47.766609 0.789928 0.602979 -0.111493 
-37.326180 -10.213480 47.665878 0.839996 0.483133 0.246961 
-37.281651 -10.195620 47.603630 0.687441 0.240964 0.685100 
-37.237400 -10.177950 47.541119 0.855311 0.001284 0.518114 
-37.189190 -10.157520 47.482208 0.517054 0.009038 0.855905 
-37.103809 -10.111100 47.457161 0.416489 -0.056737 0.907369 
-37.036549 -10.077340 47.415619 0.692736 -0.092083 0.715289 
-36.976799 -10.048830 47.367249 0.347432 0.126960 0.929071 
-36.890610 -10.001830 47.343010 0.362439 0.333909 0.870140 
-36.828751 -9.971845 47.296600 0.465605 0.597209 0.653111 
-36.787861 -9.956531 47.231049 0.410491 0.625259 0.663738 
-36.731651 -9.930490 47.179501 0.438337 0.650603 0.620143 
-36.688309 -9.913462 47.116180 0.625337 0.610438 0.486126 
-36.653549 -9.902431 47.045021 0.339855 0.439077 0.831691 
-36.552608 -9.845095 47.034382 0.666456 0.511613 0.542299 
-36.577610 -9.875883 46.908531 0.795475 0.580813 0.172849 
-36.537560 -9.861161 46.842159 0.837070 0.546646 0.022176 
-36.588131 -9.909867 46.692760 0.871650 0.453660 0.185523 
-36.550270 -9.896675 46.624352 0.951025 0.307013 0.035983 
-36.597252 -9.942883 46.478100 0.967587 0.220275 0.123508 
-36.557590 -9.928450 46.411259 0.934656 0.194757 0.297470 
-36.540741 -9.929984 46.323471 0.737783 0.287991 0.610522 
-36.471149 -9.894586 46.284111 0.486253 0.228164 0.843504 
-36.413731 -9.867714 46.233570 0.557510 0.353994 0.750913 
-36.363380 -9.845794 46.176529 0.442395 0.278436 0.852502 
-36.274811 -9.797099 46.154659 -0.024556 0.229568 0.972983 
-36.165550 -9.733905 46.151871 0.089551 0.393462 0.914969 
-36.101460 -9.702353 46.107529 0.286956 0.454107 0.843471 
-36.031319 -9.666559 46.068790 0.088218 0.295692 0.951201 
-35.919991 -9.601901 46.068020 -0.021262 0.219977 0.975273 
-35.822781 -9.547132 46.054291 0.313781 0.610400 0.727292 
-35.799351 -9.544058 45.972542 0.506876 0.698292 0.505435 
-35.734211 -9.511757 45.929260 0.521471 0.689048 0.503270 
-35.715240 -9.511806 45.843361 0.864887 0.499525 0.049442 
-35.709019 -9.520805 45.745651 0.887949 0.436338 -0.145451 
-35.741421 -9.556882 45.612190 0.926770 0.323944 -0.190153 
-35.737961 -9.567826 45.511829 0.852527 0.522629 -0.007485 
-35.731731 -9.576830 45.413990 0.556346 0.796372 0.237215 
-35.686951 -9.558809 45.351799 0.738422 0.656521 0.153991 
-35.714230 -9.591329 45.222839 0.779661 0.626163 0.007012 
-35.689980 -9.587707 45.141590 0.885304 0.433954 0.167094 
-35.680462 -9.594430 45.046638 0.865007 0.337518 0.371273 
-35.627079 -9.570386 44.992352 0.429371 0.326068 0.842211 
-35.557350 -9.534879 44.953232 0.628804 0.454844 0.630653 
-35.532021 -9.530513 44.872910 0.530298 0.539219 0.654238 
-35.460590 -9.493802 44.835400 0.193109 0.394767 0.898258 
-35.381989 -9.452065 44.804562 0.486426 0.463905 0.740393 
-35.348530 -9.441997 44.731781 0.382491 0.388170 0.838466 
-35.234268 -9.375225 44.734161 0.065793 0.251626 0.965586 
-35.158981 -9.335797 44.700321 0.245309 0.450220 0.858560 
-35.100540 -9.308192 44.650822 0.436149 0.514884 0.738017 
-35.035980 -9.276293 44.607021 0.123250 0.503684 0.855051 
-34.953400 -9.231738 44.580040 0.669308 0.605998 0.429875 
-34.981770 -9.265077 44.449589 0.865433 0.500464 -0.023675 
-34.960560 -9.263616 44.365341 0.865591 0.492677 -0.089563 
-34.999111 -9.304119 44.225262 0.782082 0.619840 -0.064387 
-34.974812 -9.300492 44.143829 0.804514 0.589718 -0.070641 
-35.009472 -9.338283 44.007240 0.800125 0.592451 -0.093817 
-34.992100 -9.339540 43.919239 0.729033 0.657819 0.189169 
-34.967510 -9.335724 43.837971 0.462022 0.562955 0.685286 
-34.879929 -9.287659 43.815639 0.387131 0.355686 0.850657 
-34.827412 -9.264223 43.760509 0.514968 0.395011 0.760773 
-34.769970 -9.237331 43.709980 0.224870 0.257892 0.939641 
-34.667938 -9.179106 43.701271 0.110941 0.090696 0.989680 
-34.575298 -9.127470 43.683800 0.437590 0.217824 0.872392 
-34.525970 -9.106271 43.625721 0.305785 0.262086 0.915318 
-34.416889 -9.043069 43.623749 -0.036901 0.329278 0.943512 
-34.334270 -8.998470 43.596970 0.303219 0.672179 0.675451 
-34.303711 -8.990454 43.521301 0.351823 0.746280 0.565055 
-34.237911 -8.957671 43.478741 0.142548 0.464562 0.873992 
-34.140862 -8.902907 43.465611 0.543739 0.557780 0.627080 
-34.130100 -8.908818 43.371300 0.809028 0.585724 0.049009 
-34.112801 -8.910139 43.283100 0.806006 0.591119 -0.030541 
-34.154690 -8.953085 43.139111 0.720028 0.660275 -0.213535 
-34.144821 -8.959645 43.043812 0.696514 0.697885 -0.166808 
-34.196602 -9.009568 42.890350 0.707327 0.706668 -0.017562 
-34.162762 -8.999270 42.817581 0.690968 0.688516 0.220249 
-34.147209 -9.001842 42.727531 0.584261 0.553259 0.593754 
-34.064831 -8.957402 42.700562 0.331429 0.584904 0.740299 
-34.029049 -8.945743 42.629589 0.421668 0.589216 0.689218 
-33.959332 -8.910210 42.590691 0.334677 0.301717 0.892725 
-33.890240 -8.875109 42.551220 0.692204 0.277310 0.666297 
-33.856720 -8.865043 42.478100 0.687921 0.402917 0.603674 
-33.805859 -8.842776 42.421379 0.424398 0.359374 0.831106 
-33.731510 -8.803967 42.386921 0.246001 0.547976 0.799504 
-33.668240 -8.772965 42.341980 0.167824 0.665800 0.727012 
-33.600208 -8.738603 42.301559 0.035076 0.615496 0.787359 
-33.510269 -8.688807 42.281960 0.091088 0.791516 0.604322 
-33.471199 -8.674837 42.214100 0.123017 0.862565 0.490764 
-33.417210 -8.650354 42.160400 0.574763 0.748525 0.330693 
-33.414120 -8.661726 42.058331 0.703479 0.710335 0.023281 
-33.404739 -8.668669 41.962212 0.782900 0.622083 0.008996 
-33.395741 -8.675894 41.865669 0.757336 0.651547 0.043912 
-33.383041 -8.680505 41.772640 0.832067 0.554665 -0.003315 
-33.369930 -8.684837 41.679951 0.828834 0.557965 0.041355 
-33.364948 -8.694903 41.579479 0.849828 0.505009 0.150860 
-33.339241 -8.690368 41.498718 0.820256 0.516690 0.245381 
-33.318779 -8.689530 41.412930 0.606747 0.511047 0.608843 
-33.247231 -8.652687 41.375858 0.633568 0.511672 0.580331 
-33.231541 -8.655215 41.285500 0.534396 0.504035 0.678506 
-33.136810 -8.602034 41.270569 -0.005404 0.281112 0.959660 
-33.042439 -8.549097 41.255341 -0.010918 0.294370 0.955629 
-39.567322 -11.133930 51.341991 0.489657 0.297310 0.819660 
-39.486061 -11.090470 51.312561 0.584910 0.549123 0.596946 
-39.463459 -11.087840 51.231270 0.721952 0.506963 0.470929 
-39.416248 -11.068080 51.171730 0.395422 0.428205 0.812577 
-39.323929 -11.016900 51.152149 0.081238 0.304327 0.949097 
-39.241199 -10.972410 51.124100 0.358273 0.474580 0.803999 
-39.196301 -10.954240 51.062550 0.262145 0.469430 0.843158 
-39.075401 -10.883150 51.068401 -0.074709 0.272643 0.959210 
-38.985649 -10.833750 51.046669 -0.005890 0.308977 0.951051 
-38.878929 -10.772520 51.040051 0.288192 0.594370 0.750780 
-38.844028 -10.761320 50.969681 0.201183 0.712282 0.672443 
-38.762791 -10.717840 50.940479 0.330978 0.616592 0.714330 
-38.716480 -10.698680 50.880249 0.831670 0.526725 0.175745 
-38.760502 -10.742490 50.739651 0.923887 0.226674 -0.308306 
-38.784908 -10.772640 50.616428 0.880145 0.428391 -0.204515 
-38.792969 -10.791390 50.507702 0.830696 0.496626 -0.251610 
-38.870979 -10.858920 50.336590 0.907483 0.412471 0.079637 
-38.858761 -10.863560 50.245811 0.832514 0.553432 0.025172 
-38.856140 -10.874890 50.146431 0.647800 0.609773 0.456653 
-38.791359 -10.842890 50.102482 0.418366 0.445212 0.791679 
-38.734100 -10.816140 50.051819 0.448973 0.395706 0.801149 
-38.668449 -10.783520 50.008671 0.380630 0.188511 0.905309 
-38.586239 -10.739360 49.980331 0.446518 0.150636 0.882004 
-38.533829 -10.715980 49.925381 0.727900 0.196070 0.657053 
-38.480259 -10.691780 49.871460 0.314269 0.342552 0.885377 
-38.391811 -10.643260 49.848770 0.074832 0.365611 0.927755 
-38.313568 -10.601850 49.816971 0.610448 0.536911 0.582305 
-38.305340 -10.609290 49.722481 0.636795 0.552733 0.537566 
-38.235180 -10.573520 49.683449 0.640233 0.584729 0.498190 
-38.226318 -10.580530 49.589470 0.591807 0.742283 0.314295 
-38.186649 -10.566040 49.523102 0.500342 0.654781 0.566498 
-38.139610 -10.546390 49.463341 0.658791 0.668589 0.344939 
-38.122169 -10.547420 49.376980 0.482993 0.726785 0.488366 
-38.047749 -10.508670 49.341820 0.466187 0.792834 0.392536 
-38.048561 -10.522440 49.239021 0.584145 0.776030 0.237807 
-38.010670 -10.509200 49.171001 0.871368 0.466335 0.152477 
-38.032021 -10.537320 49.049648 0.979722 0.168383 0.108590 
-37.992149 -10.522690 48.983360 0.842651 0.203190 0.498652 
-37.953129 -10.508670 48.916302 0.909378 0.270443 0.316058 
-37.935780 -10.509780 48.829700 0.693421 0.384002 0.609680 
-37.875500 -10.480910 48.781769 0.637862 0.447403 0.626867 
-37.842220 -10.470890 48.709499 0.688036 0.403219 0.603342 
-37.781391 -10.441640 48.662079 0.282474 0.301989 0.910501 
-37.698372 -10.396870 48.634720 0.397328 0.336955 0.853576 
-37.642792 -10.371270 48.582588 0.267825 0.376746 0.886754 
-37.551590 -10.320790 48.562672 -0.063040 0.285582 0.956279 
-37.447029 -10.260960 48.554871 -0.031062 0.249972 0.967755 
-37.350342 -10.206630 48.539989 0.552621 0.480553 0.680939 
-37.347801 -10.218100 48.439919 0.653334 0.507670 0.561629 
-37.271702 -10.178150 48.406441 0.429417 0.491470 0.757666 
-37.223019 -10.157360 48.348129 0.814788 0.535277 0.222708 
-37.242939 -10.184540 48.227619 0.791589 0.593419 -0.145744 
-37.239120 -10.195140 48.128571 0.704082 0.699789 -0.120679 
-37.246899 -10.213840 48.018970 0.734433 0.638343 -0.230491 
-37.269951 -10.243230 47.895439 0.824618 0.551105 -0.127629 
-37.259830 -10.249420 47.801991 0.862205 0.498172 -0.091800 
-37.308102 -10.296470 47.655411 0.880078 0.373146 0.293642 
-37.246971 -10.267000 47.608250 0.790655 0.272346 0.548354 
-37.234558 -10.271620 47.516769 0.824052 0.181411 0.536682 
-37.170238 -10.239910 47.472511 0.380719 0.134419 0.914869 
-37.087429 -10.195270 47.445110 0.486206 0.147076 0.861378 
-37.043041 -10.177520 47.382721 0.538847 0.194146 0.819726 
-36.957241 -10.130780 47.358082 0.208881 0.126024 0.969787 
-36.863529 -10.078500 47.340691 0.376036 0.110040 0.920048 
-36.801529 -10.048420 47.294411 0.676741 0.120331 0.726321 
-36.749699 -10.025440 47.238850 0.602622 0.148499 0.784089 
-36.681999 -9.991355 47.197788 0.697684 0.295087 0.652810 
-36.662941 -9.991326 47.112282 0.673051 0.463576 0.576281 
-36.598942 -9.959835 47.067848 0.309069 0.342821 0.887102 
-36.519329 -9.917407 47.037708 0.746638 0.395110 0.535182 
-36.519661 -9.930958 46.934422 0.825535 0.547767 0.135806 
-36.490349 -9.923757 46.858231 0.850622 0.496340 0.173463 
-36.544868 -9.975269 46.705212 0.818723 0.574070 0.011697 
-36.542519 -9.986964 46.604221 0.862572 0.455527 -0.220145 
-36.573200 -10.021800 46.472900 0.815123 0.569180 0.107741 
-36.539890 -10.011810 46.400230 0.791157 0.536928 0.292880 
-36.518120 -10.009920 46.316952 0.683984 0.390289 0.616311 
-36.441719 -9.969745 46.283821 0.402183 0.228809 0.886508 
-36.376381 -9.937319 46.240559 0.584545 0.322316 0.744593 
-36.333920 -9.920922 46.176281 0.383035 0.309227 0.870438 
-36.228230 -9.860212 46.170158 -0.095266 0.212237 0.972564 
-36.115219 -9.794373 46.170818 0.287723 0.244630 0.925944 
-36.057598 -9.767345 46.120541 0.461021 0.212318 0.861615 
-35.980659 -9.726773 46.088058 0.029782 0.231436 0.972394 
-35.877960 -9.668144 46.079350 -0.142725 0.270824 0.951990 
-35.761631 -9.599944 46.083271 0.165409 0.708941 0.685597 
-35.733540 -9.593615 46.005821 0.442067 0.788826 0.427003 
-35.687351 -9.574595 45.945049 0.743528 0.611285 0.271101 
-35.686859 -9.587619 45.842091 0.949007 0.300791 -0.094400 
-35.694389 -9.606283 45.731651 0.940221 0.274077 -0.202152 
-35.736370 -9.649112 45.589321 0.930980 0.360001 0.060632 
-35.697319 -9.635117 45.521851 0.797934 0.541040 0.265665 
-35.694191 -9.646317 45.421131 0.890287 0.433275 0.140221 
-35.672878 -9.644766 45.337200 0.939780 0.341724 0.006225 
-35.684330 -9.666207 45.222900 0.965131 0.260262 -0.028021 
-35.668510 -9.668516 45.133820 0.910159 0.384580 0.153975 
-35.667450 -9.681194 45.031010 0.775723 0.417351 0.473363 
-35.601318 -9.648206 44.988541 0.356155 0.306736 0.882648 
-35.527988 -9.610157 44.952770 0.500336 0.493902 0.711143 
-35.492981 -9.599006 44.881432 0.512935 0.500835 0.697181 
-35.415489 -9.558042 44.849541 0.184787 0.385967 0.903816 
-35.345150 -9.522084 44.811039 0.334062 0.565279 0.754230 
-35.293579 -9.499310 44.755089 0.128234 0.544741 0.828742 
-35.190811 -9.440580 44.746792 -0.060280 0.347347 0.935797 
-35.092949 -9.385286 44.733978 0.358681 0.507678 0.783333 
-35.054081 -9.371428 44.666248 0.475831 0.467808 0.744809 
-34.976879 -9.330645 44.634239 0.358332 0.322823 0.876005 
-34.918812 -9.303288 44.584419 0.883363 0.335085 0.327702 
-34.938431 -9.330520 44.462109 0.865152 0.501503 0.002420 
-34.919010 -9.330324 44.376190 0.794625 0.604476 -0.056390 
-34.946388 -9.363017 44.246540 0.783636 0.606227 -0.135660 
-34.940239 -9.372154 44.148140 0.851286 0.494753 -0.174731 
-34.969551 -9.406221 44.016548 0.785586 0.618682 0.009366 
-34.939270 -9.398417 43.940620 0.770048 0.613911 0.173608 
-34.934559 -9.408589 43.840740 0.680704 0.424046 0.597350 
-34.854710 -9.365945 43.811180 0.529654 0.171438 0.830708 
-34.805012 -9.344491 43.753399 0.647020 0.081255 0.758131 
-34.733089 -9.307416 43.716431 0.307479 0.044652 0.950507 
-34.648701 -9.261570 43.691189 0.167632 0.045903 0.984780 
-34.555130 -9.209265 43.674591 0.345608 0.174343 0.922041 
-34.494289 -9.179967 43.627312 0.139047 0.279843 0.949923 
-34.369370 -9.105607 43.640209 0.049335 0.126387 0.990753 
-34.275059 -9.052765 43.624420 0.490309 0.327693 0.807598 
-34.232910 -9.036612 43.559650 0.703818 0.403811 0.584446 
-34.195889 -9.024061 43.490051 0.430098 0.286886 0.855986 
-34.108501 -8.976081 43.467819 0.773783 0.275136 0.570579 
-34.122799 -8.999639 43.349911 0.949706 0.248989 0.189903 
-34.080181 -8.983157 43.285542 0.927579 0.345388 0.142496 
-34.111790 -9.018909 43.151218 0.906607 0.394250 -0.150436 
-34.105782 -9.028201 43.052292 0.942955 0.283971 -0.173770 
-34.133049 -9.060917 42.921928 0.859914 0.509871 -0.024066 
-34.119492 -9.064905 42.830021 0.844562 0.527420 0.092430 
-34.113171 -9.073996 42.731251 0.584436 0.494029 0.643715 
-34.016338 -9.019364 42.717930 0.437224 0.423238 0.793539 
-33.978722 -9.006415 42.648708 0.533289 0.522759 0.665076 
-33.922440 -8.980333 42.597111 0.481265 0.344240 0.806153 
-33.856590 -8.947508 42.554569 0.623299 0.344683 0.701921 
-33.817032 -8.933201 42.487160 0.609392 0.369090 0.701722 
-33.746449 -8.897040 42.449120 0.167201 0.365456 0.915689 
-33.659840 -8.849585 42.426289 0.325689 0.447482 0.832878 
-33.610600 -8.828456 42.368061 0.414968 0.425929 0.803981 
-33.535172 -8.788873 42.334671 0.077572 0.362492 0.928753 
-33.446621 -8.740045 42.313759 0.291191 0.513237 0.807339 
-33.395939 -8.717892 42.256939 0.652127 0.531389 0.540700 
-33.361801 -8.707398 42.184391 0.611995 0.610113 0.503215 
-33.312981 -8.686557 42.125801 0.573084 0.791006 0.214205 
-33.337269 -8.717248 41.997681 0.652185 0.755252 -0.065176 
-33.313419 -8.714020 41.915279 0.528782 0.848571 -0.017774 
-33.339691 -8.746119 41.785172 0.721574 0.679326 -0.133592 
-33.333241 -8.755158 41.686131 0.766734 0.641440 -0.025954 
-33.327141 -8.764458 41.586720 0.784630 0.601417 0.150512 
-33.296982 -8.756793 41.510201 0.725812 0.629646 0.277026 
-33.274719 -8.754699 41.426128 0.645070 0.494864 0.582232 
-33.206280 -8.720040 41.386101 0.617808 0.508819 0.599514 
-33.186062 -8.719393 41.300049 0.421969 0.577686 0.698728 
-33.092018 -8.666673 41.284470 0.049547 0.288039 0.956336 
-39.438980 -11.152950 51.328369 0.534010 0.739549 0.409757 
-39.398300 -11.137740 51.263069 0.407178 0.795387 0.448960 
-39.361500 -11.125230 51.194328 0.258342 0.660377 0.705097 
-39.272442 -11.076310 51.171871 -0.021931 0.454954 0.890245 
-39.182129 -11.026510 51.150551 0.277234 0.630309 0.725157 
-39.142509 -11.012040 51.084320 0.195054 0.553881 0.809426 
-39.031349 -10.947700 51.081551 0.018834 0.208924 0.977751 
-38.931480 -10.891230 51.068810 -0.046960 0.258483 0.964874 
-38.835369 -10.837370 51.052780 0.170638 0.463736 0.869386 
-38.770748 -10.805460 51.008808 0.548890 0.390257 0.739202 
-38.721031 -10.783930 50.951611 0.792604 0.255801 0.553484 
-38.703510 -10.784860 50.865780 0.972351 0.217023 -0.086226 
-38.741779 -10.824700 50.730270 0.872546 0.446506 -0.198232 
-38.741051 -10.837340 50.629410 0.899578 0.415248 -0.135387 
-38.766361 -10.868160 50.505322 0.958227 0.283293 -0.039325 
-38.832729 -10.927620 50.344559 0.687165 0.716441 0.120484 
-38.802189 -10.919490 50.270111 0.695700 0.711152 0.101317 
-38.804321 -10.934160 50.166489 0.687820 0.613588 0.387830 
-38.742981 -10.904560 50.119469 0.435269 0.509464 0.742285 
-38.695629 -10.884710 50.059971 0.528859 0.517103 0.672988 
-38.648651 -10.865120 50.000141 0.452215 0.337578 0.825556 
-38.561291 -10.817350 49.976398 0.450514 0.256209 0.855216 
-38.514080 -10.797600 49.916790 0.611801 0.291902 0.735182 
-38.451981 -10.767450 49.870499 0.304299 0.197013 0.931981 
-38.347618 -10.707800 49.862049 0.232743 0.168247 0.957875 
-38.280369 -10.674050 49.820412 0.621199 0.447567 0.643270 
-38.251530 -10.667120 49.744370 0.559501 0.590693 0.581412 
-38.193748 -10.639990 49.694260 0.422959 0.664918 0.615621 
-38.148880 -10.621860 49.632580 0.353974 0.849112 0.392060 
-38.116360 -10.612360 49.559811 0.292984 0.846919 0.443721 
-38.059711 -10.586020 49.508678 0.339221 0.894348 0.291670 
-38.054062 -10.595290 49.411758 0.485419 0.784964 0.384968 
-37.991871 -10.565070 49.365601 0.613340 0.694365 0.376394 
-37.994831 -10.580370 49.260880 0.723475 0.684058 0.092993 
-37.971790 -10.577500 49.179501 0.821716 0.564261 -0.079951 
-38.013550 -10.619910 49.039768 0.856529 0.499562 0.129596 
-37.975090 -10.606280 48.972198 0.803894 0.444449 0.395246 
-37.954720 -10.605290 48.888321 0.808950 0.411638 0.419707 
-37.904091 -10.583160 48.831692 0.538361 0.375921 0.754222 
-37.836979 -10.549510 48.789940 0.738920 0.351730 0.574703 
-37.824940 -10.554340 48.698502 0.771192 0.225520 0.595318 
-37.746208 -10.512570 48.667229 0.279117 0.192583 0.940747 
-37.673538 -10.475030 48.630508 0.396348 0.252388 0.882728 
-37.608799 -10.443030 48.586658 0.321510 0.167622 0.931952 
-37.508190 -10.385950 48.575241 -0.004063 0.135014 0.990835 
-37.405010 -10.327070 48.566200 0.053630 0.138158 0.988957 
-37.308620 -10.272920 48.551060 0.538853 0.370785 0.756410 
-37.273071 -10.261320 48.480881 0.424767 0.643378 0.636898 
-37.218491 -10.236410 48.427910 0.532019 0.606254 0.591111 
-37.185829 -10.226840 48.355091 0.678117 0.708974 0.193686 
-37.172958 -10.231110 48.264309 0.632974 0.772430 -0.051918 
-37.177120 -10.247300 48.158039 0.649600 0.743977 -0.156585 
-37.189289 -10.269090 48.044449 0.737928 0.619993 -0.266591 
-37.254520 -10.328030 47.882610 0.926874 0.365405 0.085931 
-37.243401 -10.333550 47.790039 0.908306 0.392799 -0.143837 
-37.268810 -10.364630 47.664230 0.847246 0.481391 0.224583 
-37.223240 -10.346060 47.602909 0.786970 0.433063 0.439471 
-37.199570 -10.342800 47.521660 0.548685 0.567353 0.614048 
-37.130981 -10.308110 47.481300 0.148514 0.448112 0.881555 
-37.043659 -10.260300 47.458000 0.156384 0.572548 0.804818 
-36.987389 -10.234220 47.406441 0.227191 0.618794 0.751983 
-36.917938 -10.198920 47.366909 0.208422 0.395608 0.894458 
-36.838360 -10.156520 47.336639 0.381837 0.371526 0.846267 
-36.793121 -10.138160 47.275051 0.698752 0.333219 0.633018 
-36.743450 -10.116700 47.217499 0.515472 0.240914 0.822344 
-36.664539 -10.074770 47.186661 0.443723 0.345197 0.827012 
-36.607880 -10.048410 47.135521 0.564912 0.517980 0.642317 
-36.571892 -10.036530 47.065479 0.465922 0.398678 0.789920 
-36.486721 -9.990200 47.040421 0.740382 0.411534 0.531483 
-36.491859 -10.007140 46.932720 0.907473 0.398129 0.134111 
-36.464371 -10.001230 46.854851 0.767166 0.630746 0.116690 
-36.486610 -10.030160 46.731392 0.660392 0.736773 -0.145082 
-36.477100 -10.036850 46.636978 0.522479 0.839538 -0.148971 
-36.505409 -10.070060 46.507832 0.546455 0.837432 0.009760 
-36.476822 -10.063390 46.430840 0.514301 0.850584 0.109554 
-36.476631 -10.076640 46.327740 0.583115 0.673762 0.453896 
-36.407681 -10.041670 46.287781 0.257588 0.490138 0.832714 
-36.343430 -10.010000 46.243519 0.414601 0.520605 0.746376 
-36.284130 -9.981810 46.194710 0.207107 0.357154 0.910795 
-36.175900 -9.919300 46.190929 0.019352 0.177755 0.983884 
-36.093071 -9.874597 46.163830 0.368764 0.277234 0.887218 
-36.043011 -9.852870 46.106571 0.293702 0.375179 0.879193 
-35.932449 -9.788705 46.105068 -0.165917 0.313112 0.935111 
-35.801239 -9.710045 46.122669 -0.181424 0.268571 0.946020 
-35.692760 -9.647328 46.119362 0.461808 0.499687 0.732835 
-35.669720 -9.644547 46.037258 0.788552 0.535641 0.302115 
-35.643459 -9.639508 45.958111 0.900190 0.428270 0.079007 
-35.669781 -9.671375 45.830360 0.767109 0.636080 -0.083341 
-35.660011 -9.677921 45.735901 0.736738 0.637074 -0.226616 
-35.698311 -9.718213 45.596951 0.663015 0.737481 0.128581 
-35.652359 -9.699372 45.535870 0.688255 0.701891 0.183447 
-35.658409 -9.717035 45.426651 0.878588 0.476356 0.034168 
-35.634579 -9.713732 45.345051 0.921339 0.388408 -0.016567 
-35.675209 -9.755682 45.203709 0.744218 0.616698 0.256562 
-35.615601 -9.727270 45.155190 0.479274 0.822867 0.305265 
-35.615879 -9.740902 45.051151 0.490805 0.780928 0.386344 
-35.550598 -9.708505 45.007889 0.154956 0.575056 0.803305 
-35.468670 -9.664410 44.980110 0.410304 0.672824 0.615597 
-35.447540 -9.663016 44.895882 0.368071 0.685440 0.628248 
-35.360321 -9.615199 44.873039 0.051185 0.522020 0.851396 
-35.277679 -9.570593 44.845989 0.116751 0.681557 0.722392 
-35.229660 -9.550309 44.786751 0.136355 0.613026 0.778207 
-35.125599 -9.490645 44.779678 0.152263 0.286297 0.945965 
-35.058430 -9.456904 44.738289 0.495014 0.408860 0.766678 
-35.014660 -9.439604 44.675129 0.615792 0.340458 0.710555 
-34.952290 -9.409225 44.629299 0.596930 0.157147 0.786752 
-34.899529 -9.385608 44.574509 0.843625 0.396545 0.362006 
-34.898899 -9.398631 44.471088 0.819699 0.548100 0.166375 
-34.860310 -9.384975 44.403061 0.723162 0.681749 0.110703 
-34.895000 -9.422842 44.266571 0.709760 0.677791 -0.191938 
-34.894650 -9.436074 44.162762 0.667748 0.720184 -0.188275 
-34.915180 -9.464006 44.039360 0.685258 0.725965 -0.058276 
-34.898060 -9.465460 43.951130 0.726578 0.685287 0.049665 
-34.890808 -9.473861 43.853630 0.746667 0.472557 0.468164 
-34.826710 -9.442287 43.809311 0.751036 0.103227 0.652142 
-34.793980 -9.432767 43.735630 0.715632 -0.055614 0.696260 
-34.714859 -9.390618 43.705410 0.197230 -0.012682 0.980275 
-34.605480 -9.327179 43.703590 0.078718 0.081268 0.993579 
-34.514839 -9.276919 43.684250 0.166102 0.218980 0.961487 
-34.431351 -9.231687 43.658218 0.194365 0.140584 0.970803 
-34.350929 -9.188604 43.629360 0.228668 0.046968 0.972371 
-34.268799 -9.144318 43.602119 0.502603 0.202182 0.840543 
-34.226059 -9.127748 43.537891 0.650151 0.289162 0.702630 
-34.154572 -9.090949 43.500679 0.312818 0.269036 0.910914 
-34.083488 -9.054431 43.463120 0.847747 0.289956 0.444129 
-34.095070 -9.076109 43.347740 0.900326 0.388192 0.196775 
-34.060329 -9.065173 43.275959 0.877112 0.475257 0.069328 
-34.089119 -9.098979 43.144272 0.936164 0.279146 -0.213717 
-34.117920 -9.132809 43.012501 0.922677 0.379656 -0.067298 
-34.101181 -9.134568 42.923611 0.887121 0.437098 0.148196 
-34.076328 -9.130616 42.842369 0.795869 0.568600 0.208054 
-34.062370 -9.134342 42.750801 0.615453 0.478024 0.626666 
-33.982811 -9.091853 42.721180 0.480584 0.282677 0.830140 
-33.931999 -9.069620 42.664421 0.729416 0.252998 0.635567 
-33.885769 -9.050614 42.603321 0.545501 0.248910 0.800296 
-33.823101 -9.020029 42.557770 0.646119 0.371357 0.666802 
-33.791050 -9.011015 42.483250 0.699806 0.192043 0.688034 
-33.712070 -8.968927 42.453159 0.277991 0.086830 0.956651 
-33.631512 -8.925724 42.424591 0.445837 0.251050 0.859187 
-33.583721 -8.905616 42.364990 0.364365 0.383293 0.848720 
-33.495319 -8.856881 42.343899 0.125404 0.281494 0.951333 
-33.409950 -8.810280 42.319969 0.452325 0.442361 0.774415 
-33.384701 -8.806062 42.238991 0.647658 0.530249 0.547151 
-33.323280 -8.776339 42.192348 0.469379 0.534315 0.702987 
-33.270409 -8.752645 42.137600 0.788402 0.552306 0.270889 
-33.279800 -8.772855 42.023651 0.655890 0.741381 0.141992 
-33.238930 -8.757631 41.957451 0.527017 0.844899 0.091642 
-33.264549 -8.789302 41.827961 0.591703 0.778249 -0.210275 
-33.268650 -8.805808 41.718880 0.558219 0.819227 -0.131369 
-33.276039 -8.824637 41.606628 0.609203 0.789235 0.077326 
-33.243351 -8.815191 41.532532 0.612432 0.774535 0.158182 
-33.238918 -8.825694 41.431450 0.584490 0.624136 0.518484 
-33.160370 -8.783897 41.401058 0.353622 0.656233 0.666566 
-33.124519 -8.772224 41.329941 0.209298 0.721691 0.659816 
-33.048199 -8.731997 41.297451 0.096981 0.567772 0.817453 
-39.380428 -11.207440 51.354328 0.360625 0.773967 0.520504 
-39.329208 -11.184880 51.298359 0.330430 0.823789 0.460639 
-39.293121 -11.172870 51.229012 0.154273 0.724167 0.672147 
-39.201672 -11.122270 51.208679 -0.034711 0.520303 0.853276 
-39.126781 -11.083200 51.173710 0.295730 0.647570 0.702279 
-39.076908 -11.061580 51.116581 0.124864 0.550240 0.825618 
-38.995258 -11.017800 51.087639 0.112691 0.179360 0.977308 
-38.880089 -10.950630 51.088490 -0.070931 0.265424 0.961519 
-38.781811 -10.895240 51.074390 0.460469 0.335835 0.821696 
-38.772369 -10.901820 50.981400 0.869287 -0.061446 0.490474 
-38.698299 -10.863310 50.945831 0.769812 0.166406 0.616196 
-38.682892 -10.865720 50.858109 0.967368 0.238135 -0.086548 
-38.690479 -10.884190 50.749889 0.911752 0.403589 -0.076323 
-38.761421 -10.946870 50.585209 0.860515 0.466369 0.204974 
-38.717880 -10.929660 50.522419 0.818346 0.543287 0.187483 
-38.771339 -10.980170 50.373150 0.736960 0.667009 -0.109495 
-38.750462 -10.978790 50.290089 0.745200 0.666837 0.002176 
-38.763439 -11.001050 50.176800 0.637709 0.658162 0.400188 
-38.692909 -10.965030 50.137981 0.293412 0.586029 0.755301 
-38.637009 -10.939210 50.086121 0.543736 0.588411 0.598435 
-38.596050 -10.923820 50.020920 0.398136 0.480669 0.781310 
-38.520031 -10.883960 49.987049 0.435110 0.415997 0.798515 
-38.472401 -10.863910 49.927811 0.554817 0.437340 0.707751 
-38.416721 -10.838240 49.875778 0.297389 0.288212 0.910216 
-38.321789 -10.785170 49.858891 0.102511 0.231830 0.967340 
-38.235340 -10.738000 49.834450 0.497856 0.507034 0.703602 
-38.206360 -10.730970 49.758541 0.497847 0.566726 0.656483 
-38.127819 -10.689330 49.727039 0.360972 0.566967 0.740437 
-38.082981 -10.671240 49.665329 0.461524 0.721096 0.516736 
-38.043049 -10.656570 49.599220 0.400698 0.715830 0.571864 
-37.984161 -10.628640 49.550129 0.516855 0.793700 0.320781 
-38.000290 -10.653160 49.433640 0.514246 0.807991 0.287578 
-37.941891 -10.625580 49.384090 0.542957 0.785358 0.297338 
-37.937840 -10.635990 49.285679 0.551729 0.831375 0.066417 
-37.917999 -10.635370 49.201420 0.713470 0.681636 -0.162274 
-37.953979 -10.673790 49.066891 0.765052 0.643565 0.022788 
-37.915779 -10.660340 48.999100 0.702731 0.636835 0.317193 
-37.899811 -10.662440 48.911259 0.664241 0.675230 0.320700 
-37.866291 -10.652270 48.839199 0.558168 0.551234 0.620153 
-37.807850 -10.624670 48.789631 0.760941 0.475603 0.441327 
-37.796490 -10.630010 48.697559 0.616222 0.455309 0.642623 
-37.708382 -10.581660 48.674759 0.184297 0.281918 0.941571 
-37.629601 -10.539840 48.643570 0.344066 0.448514 0.824896 
-37.586250 -10.522800 48.580379 0.365561 0.347163 0.863622 
-37.468719 -10.453860 48.584259 0.021419 0.111166 0.993571 
-37.372349 -10.399710 48.569069 0.145807 0.094146 0.984823 
-37.286400 -10.352850 48.544479 0.387773 0.232541 0.891940 
-37.226299 -10.324090 48.496510 0.468681 0.423230 0.775380 
-37.167801 -10.296430 48.447109 0.457005 0.546471 0.701795 
-37.116730 -10.273980 48.390980 0.744369 0.586596 0.319091 
-37.115349 -10.286300 48.289791 0.868166 0.496013 -0.016095 
-37.105579 -10.292760 48.196152 0.831813 0.544455 -0.107965 
-37.147228 -10.335230 48.055801 0.861184 0.358995 -0.359840 
-37.210838 -10.393070 47.895420 0.810914 0.583346 -0.046097 
-37.200760 -10.399340 47.801910 0.856046 0.497975 -0.138588 
-37.228512 -10.432100 47.673969 0.818223 0.529558 0.223783 
-37.176800 -10.409210 47.618240 0.499707 0.631322 0.593064 
-37.134750 -10.393110 47.553711 0.230976 0.729983 0.643253 
-37.063000 -10.356180 47.516239 0.026991 0.561579 0.826983 
-36.969761 -10.304210 47.498348 0.154555 0.630525 0.760625 
-36.923328 -10.285030 47.437840 0.205269 0.741769 0.638470 
-36.861000 -10.254700 47.391830 0.137689 0.609487 0.780748 
-36.775002 -10.207790 47.367420 0.354345 0.619461 0.700505 
-36.742100 -10.198080 47.294579 0.375729 0.771032 0.514137 
-36.691681 -10.176100 47.237709 0.300406 0.637824 0.709180 
-36.615391 -10.135980 47.204498 0.342124 0.522165 0.781214 
-36.569691 -10.117300 47.143341 0.520790 0.568783 0.636603 
-36.511372 -10.089780 47.093712 0.426831 0.465784 0.775152 
-36.454201 -10.063060 47.043049 0.813783 0.419292 0.402432 
-36.454781 -10.076830 46.939510 0.668817 0.660278 0.341638 
-36.396259 -10.049170 46.890072 0.562045 0.792221 0.237680 
-36.418839 -10.078370 46.766300 0.542192 0.839985 0.021293 
-36.377350 -10.062650 46.701229 0.273884 0.919838 0.280864 
-36.432640 -10.114810 46.547340 0.422778 0.879879 0.216960 
-36.392399 -10.099980 46.481049 0.586875 0.806158 0.075404 
-36.410789 -10.126280 46.360901 0.594872 0.715304 0.366699 
-36.335091 -10.086570 46.327160 0.304062 0.564184 0.767622 
-36.288891 -10.067560 46.266312 0.659195 0.475836 0.582273 
-36.248581 -10.052680 46.200050 0.315494 0.338132 0.886640 
-36.136360 -9.987344 46.199951 -0.069318 0.251894 0.965269 
-36.035690 -9.930103 46.189281 0.006098 0.503851 0.863769 
-35.959240 -9.889856 46.156342 -0.101290 0.558781 0.823107 
-35.868980 -9.839911 46.136162 -0.079718 0.347508 0.934282 
-35.759521 -9.776488 46.133709 0.060625 0.100050 0.993134 
-35.667549 -9.725331 46.115181 0.682654 0.146353 0.715936 
-35.646851 -9.724215 46.030910 0.929226 0.205640 0.307005 
-35.614079 -9.714613 45.957760 0.795914 0.476465 0.373500 
-35.577438 -9.702306 45.888168 0.756526 0.639648 0.136083 
-35.582321 -9.719155 45.780182 0.710537 0.687228 -0.151178 
-35.617680 -9.757414 45.643959 0.550187 0.832465 -0.065551 
-35.594730 -9.754723 45.561619 0.717794 0.692787 -0.069410 
-35.623569 -9.788425 45.431301 0.858959 0.506072 -0.077984 
-35.610840 -9.792929 45.339409 0.748706 0.662602 0.019945 
-35.596230 -9.796114 45.249229 0.285118 0.902921 0.321622 
-35.539841 -9.769955 45.197762 0.513982 0.825631 0.232714 
-35.539532 -9.783191 45.094269 0.525836 0.797792 0.294999 
-35.487991 -9.760441 45.038280 0.260901 0.586138 0.767054 
-35.413780 -9.721754 45.003349 0.394856 0.575153 0.716441 
-35.364399 -9.700515 44.945370 0.383143 0.571333 0.725796 
