-34.580650 -11.508740 32.586941 0.258045 0.646703 0.717766 
-34.512569 -11.474510 32.544670 0.603374 0.659920 0.447711 
-34.515701 -11.491090 32.431999 0.634266 0.558719 0.534359 
-34.427761 -11.442690 32.409370 0.207502 0.516735 0.830619 
-34.364651 -11.412010 32.362190 0.577462 0.547622 0.605515 
-34.331081 -11.402400 32.285789 0.436699 0.482466 0.759290 
-34.253792 -11.361590 32.252670 0.399513 0.504800 0.765223 
-34.205818 -11.341710 32.190529 0.282932 0.536217 0.795249 
-34.128731 -11.301050 32.157249 0.090544 0.256621 0.962262 
-34.013790 -11.233340 32.161549 0.296669 0.252410 0.921019 
-33.966808 -11.214160 32.098450 0.697593 0.473153 0.538043 
-33.935650 -11.206280 32.019642 0.540082 0.542262 0.643633 
-33.861610 -11.167780 31.983419 0.631904 0.581164 0.512782 
-33.854610 -11.177150 31.880581 0.645929 0.674006 0.358457 
-33.795269 -11.149150 31.829741 0.468071 0.781867 0.411817 
-33.786980 -11.157610 31.728121 0.635141 0.705370 0.314721 
-33.740452 -11.138760 31.664511 0.537545 0.685420 0.491168 
-33.686211 -11.114400 31.608589 0.660381 0.665573 0.347720 
-33.682590 -11.126210 31.502220 0.652375 0.588498 0.477573 
-33.622379 -11.097590 31.452230 0.811540 0.411091 0.415219 
-33.608730 -11.102230 31.355810 0.712810 0.418970 0.562464 
-33.550220 -11.074820 31.304119 0.626773 0.334056 0.703961 
-33.502590 -11.055190 31.241560 0.506641 0.500007 0.702358 
-33.441250 -11.025760 31.192711 0.356503 0.357963 0.863000 
-33.360939 -10.982760 31.162821 0.634152 0.456928 0.623753 
-33.339359 -10.981760 31.074221 0.443276 0.701681 0.557809 
-33.272141 -10.948110 31.031269 0.326497 0.526871 0.784733 
-33.214291 -10.921170 30.978939 0.537974 0.627912 0.562415 
-33.183250 -10.913410 30.899780 0.511255 0.539404 0.669076 
-33.102570 -10.870130 30.870340 0.538282 0.464584 0.703146 
-33.076832 -10.866160 30.785839 0.775772 0.428211 0.463479 
-33.029850 -10.846990 30.722630 0.495496 0.405617 0.768088 
-32.968460 -10.817520 30.673861 0.513572 0.544629 0.663041 
-32.921280 -10.798210 30.610840 0.331950 0.603428 0.725041 
-32.831749 -10.748590 30.590361 0.395458 0.626289 0.671845 
-32.814289 -10.750540 30.497490 0.616416 0.694906 0.370320 
-32.766209 -10.730590 30.435369 0.360169 0.708038 0.607422 
-32.705631 -10.701690 30.385811 0.559527 0.729580 0.393247 
-32.699692 -10.711900 30.281281 0.662095 0.588169 0.464422 
-32.632488 -10.678270 30.238380 0.121651 0.553120 0.824172 
-32.556400 -10.638260 30.204470 0.524885 0.637324 0.564193 
-32.526211 -10.631120 30.124290 0.389578 0.702489 0.595599 
-32.450920 -10.591670 30.089600 0.507330 0.650015 0.565770 
-32.427650 -10.589490 30.002439 0.635431 0.523835 0.567295 
-32.365791 -10.559670 29.954189 0.282413 0.478599 0.831376 
-32.295731 -10.523980 29.914249 0.474860 0.657169 0.585352 
-32.274551 -10.523300 29.824921 0.544647 0.524606 0.654331 
-32.187130 -10.475160 29.802549 0.303520 0.532952 0.789834 
-32.138229 -10.454620 29.741230 0.583795 0.554843 0.592733 
-32.094860 -10.438040 29.674320 0.483123 0.503894 0.716019 
-32.028889 -10.405270 29.630280 0.650031 0.617180 0.443338 
-32.033039 -10.422750 29.515230 0.766782 0.485832 0.419540 
-31.971560 -10.393190 29.466640 0.801384 0.435755 0.409757 
-31.963860 -10.402190 29.363520 0.727493 0.501415 0.468333 
-31.898951 -10.370180 29.318399 0.707466 0.530541 0.466925 
-31.900240 -10.385630 29.206100 0.812897 0.489072 0.316240 
-31.848631 -10.363150 29.147470 0.382358 0.518256 0.764992 
-31.782490 -10.330260 29.103590 0.531307 0.685153 0.498276 
-31.762711 -10.330620 29.012609 0.504193 0.674610 0.539157 
-31.696529 -10.297690 28.968790 0.602658 0.523568 0.602228 
-31.668159 -10.291880 28.886499 0.492559 0.432521 0.755190 
-31.574739 -10.239420 28.870420 0.192192 0.335475 0.922236 
-31.505520 -10.204310 28.829729 0.591404 0.567536 0.572838 
-31.483990 -10.203410 28.740459 0.438546 0.696536 0.567904 
-31.412149 -10.166420 28.702440 0.177640 0.668197 0.722466 
-31.351690 -10.137590 28.652840 0.367666 0.804424 0.466609 
-31.329720 -10.136390 28.563971 0.474596 0.636238 0.608244 
-31.257650 -10.099230 28.526230 0.525750 0.577490 0.624573 
-31.226620 -10.091520 28.446581 0.526406 0.522904 0.670423 
-31.147011 -10.048940 28.416571 0.243687 0.332086 0.911228 
-31.067579 -10.006490 28.386391 0.429491 0.640251 0.636880 
-31.046480 -10.005920 28.296560 0.536040 0.625912 0.566476 
-30.975161 -9.969284 28.258120 0.490607 0.585718 0.645166 
-30.941650 -9.959805 28.180960 0.557207 0.683014 0.472242 
-30.894341 -9.940416 28.117929 0.591380 0.690691 0.416192 
-30.872959 -9.939651 28.028311 0.703752 0.680887 0.202793 
-30.852539 -9.939578 27.937691 0.529851 0.628109 0.569857 
-30.777189 -9.900045 27.903391 0.570998 0.663156 0.483927 
-30.778500 -9.915597 27.790409 0.633890 0.594506 0.494718 
-30.700569 -9.874209 27.758770 0.416724 0.497270 0.760962 
-30.653049 -9.854672 27.695910 0.371624 0.518757 0.769926 
-30.582359 -9.818486 27.656860 0.231007 0.314315 0.920783 
-30.492479 -9.768502 27.637581 0.624252 0.478512 0.617524 
-30.490761 -9.781885 27.527599 0.561869 0.517382 0.645461 
-30.398081 -9.729889 27.511221 0.263548 0.167675 0.949962 
-30.324459 -9.691582 27.475260 0.693750 0.339717 0.635062 
-30.305639 -9.692683 27.382830 0.696363 0.418568 0.582991 
-30.240400 -9.660404 27.338240 0.647982 0.437701 0.623327 
-30.216280 -9.657693 27.251240 0.868995 0.402332 0.288058 
-30.178261 -9.644995 27.178551 0.677983 0.673301 0.294966 
-30.159349 -9.646034 27.086130 0.537464 0.811064 0.230883 
-30.127810 -9.637999 27.006710 0.609697 0.724563 0.321368 
-30.099649 -9.632399 26.923771 0.631494 0.647921 0.425928 
-30.052799 -9.613356 26.860149 0.511976 0.491885 0.704223 
-29.987249 -9.580850 26.815870 0.600422 0.605232 0.522674 
-29.974030 -9.586008 26.717421 0.589011 0.564680 0.578103 
-29.900511 -9.547770 26.681400 0.439808 0.319294 0.839417 
-29.843710 -9.521563 26.628071 0.488727 0.450830 0.746926 
-29.784710 -9.493771 26.577030 0.404811 0.405217 0.819712 
-29.711679 -9.455881 26.540550 0.585289 0.556837 0.589380 
-29.703350 -9.464566 26.436939 0.544248 0.532160 0.648537 
-29.605270 -9.408632 26.426479 0.007617 0.372063 0.928176 
-29.515591 -9.358748 26.407339 0.419027 0.667337 0.615692 
-29.505140 -9.365914 26.305880 0.710138 0.480155 0.514931 
-29.431320 -9.327442 26.270290 0.377982 0.633988 0.674677 
-29.392969 -9.314516 26.197809 0.237748 0.886900 0.396086 
-29.354309 -9.301368 26.125650 0.327400 0.798656 0.504934 
-29.283070 -9.264751 26.087400 0.495487 0.765400 0.410678 
-29.287661 -9.282771 25.970150 0.577801 0.710646 0.401409 
-29.228310 -9.254726 25.919491 0.513696 0.707597 0.485204 
-29.201059 -9.249807 25.835369 0.607045 0.610181 0.509093 
-29.138729 -9.219606 25.787840 0.449306 0.538320 0.712977 
-29.092291 -9.200864 25.723721 0.644733 0.654837 0.394344 
-29.074221 -9.202575 25.629959 0.599935 0.608642 0.519263 
-29.006001 -9.168129 25.588579 0.491043 0.725259 0.482572 
-28.993000 -9.173493 25.489470 0.665332 0.662762 0.343627 
-28.949120 -9.156601 25.422630 0.780089 0.502887 0.372244 
-28.921049 -9.151106 25.339239 0.540878 0.504284 0.673163 
-28.843090 -9.109637 25.308060 0.103903 0.247771 0.963231 
-28.753639 -9.059880 25.288940 0.423120 0.281660 0.861183 
-28.709660 -9.042911 25.222210 0.492481 0.234832 0.838043 
-28.614811 -8.989253 25.208811 0.513167 0.292853 0.806782 
-28.587250 -8.984131 25.124849 0.836237 0.435380 0.333394 
-28.554119 -8.974989 25.046721 0.452626 0.484532 0.748571 
-28.461849 -8.923180 25.030680 0.528427 0.563818 0.634724 
-28.446060 -8.926559 24.934311 0.535430 0.736668 0.413079 
-28.392269 -8.902514 24.877859 0.496953 0.797636 0.341781 
-28.375570 -8.905241 24.782400 0.614657 0.787400 0.046885 
-28.373249 -8.918357 24.671761 0.834516 0.549695 -0.037653 
-28.367701 -8.929144 24.564480 0.621597 0.650828 0.435935 
-28.306070 -8.899446 24.516230 0.492320 0.608553 0.622321 
-28.266600 -8.885749 24.444620 0.570551 0.565595 0.595461 
-28.208401 -8.858528 24.392759 0.306738 0.349996 0.885107 
-28.125231 -8.813275 24.367241 0.235766 0.368669 0.899165 
-28.049650 -8.773499 24.333740 0.234835 0.655454 0.717797 
-28.004129 -8.755428 24.268530 0.342462 0.611783 0.713051 
-27.930050 -8.716727 24.233480 0.485927 0.673908 0.556527 
-27.911461 -8.718119 24.139799 0.569695 0.561930 0.599735 
-27.829229 -8.673528 24.113390 0.271091 0.530098 0.803434 
-27.775560 -8.649575 24.056780 0.683220 0.613070 0.396679 
-27.765600 -8.657209 23.953911 0.488890 0.633578 0.599638 
-27.678030 -8.608754 23.933201 0.481232 0.675346 0.558859 
-27.673679 -8.620447 23.824329 0.487215 0.687166 0.538911 
-27.595739 -8.578948 23.793440 0.226849 0.619350 0.751628 
-27.549009 -8.560006 23.729469 0.539585 0.610153 0.580139 
-27.495110 -8.535886 23.673100 0.253272 0.570598 0.781199 
-27.415279 -8.493013 23.644270 0.471975 0.696565 0.540404 
-27.397791 -8.495224 23.549231 0.514325 0.791237 0.330778 
-27.350090 -8.475582 23.486280 0.601460 0.756970 0.255424 
-27.348570 -8.489351 23.374201 0.509146 0.746452 0.428461 
-27.282190 -8.456204 23.331091 0.465074 0.611371 0.640260 
-27.244841 -8.444054 23.257090 0.552260 0.622719 0.554283 
-27.202551 -8.428339 23.188320 0.607960 0.449350 0.654576 
-27.141371 -8.398951 23.139681 0.605401 0.601679 0.521030 
-27.111521 -8.392236 23.057650 0.439226 0.672176 0.596036 
-27.041309 -8.356312 23.018641 0.384882 0.564788 0.729987 
-26.995060 -8.337730 22.954081 0.451739 0.592001 0.667433 
-26.937830 -8.311197 22.901239 0.311040 0.462553 0.830240 
-26.864580 -8.273071 22.865511 0.628117 0.527129 0.572367 
-26.846710 -8.275037 22.770630 0.474032 0.582547 0.660252 
-26.748440 -8.218785 22.761669 0.314777 0.552661 0.771675 
-26.702120 -8.200153 22.697189 0.690982 0.623467 0.365832 
-26.686279 -8.203596 22.600071 0.707640 0.564857 0.424479 
-26.640289 -8.185204 22.535210 0.741832 0.563403 0.363679 
-26.622000 -8.186876 22.440670 0.616431 0.659725 0.429855 
-26.562241 -8.158515 22.390530 0.593794 0.717642 0.363868 
-26.569731 -8.178873 22.268280 0.700129 0.591263 0.400284 
-26.507580 -8.148780 22.220699 0.573607 0.585317 0.573043 
-26.475840 -8.140721 22.140471 0.397193 0.642598 0.655214 
-26.402531 -8.102536 22.104879 0.318480 0.488974 0.812081 
-26.335079 -8.068604 22.063000 0.464823 0.627103 0.625046 
-26.309450 -8.064975 21.976191 0.573152 0.531317 0.623858 
-26.232759 -8.024335 21.944269 0.290685 0.621007 0.727910 
-26.188210 -8.006993 21.877781 0.378522 0.636815 0.671705 
-26.119810 -7.972367 21.836960 0.212366 0.453576 0.865546 
-26.034250 -7.925291 21.814650 0.547505 0.566881 0.615536 
-26.027969 -7.935703 21.706921 0.590429 0.608247 0.530499 
-25.959419 -7.900957 21.666300 0.200732 0.468353 0.860437 
-35.755310 -12.058570 34.350689 0.391666 0.523435 0.756712 
-35.693890 -12.029090 34.301788 0.890411 0.322896 0.320790 
-35.694141 -12.043540 34.192741 0.811605 0.470301 0.346575 
-35.648819 -12.025540 34.128109 0.777734 0.583991 0.232560 
-35.661659 -12.048970 34.006680 0.680425 0.558123 0.474890 
-35.580730 -12.005600 33.976810 0.639933 0.517872 0.567710 
-35.562740 -12.007080 33.885441 0.830801 0.510785 0.221064 
-35.534069 -12.000940 33.804489 0.736615 0.518903 0.433748 
-35.499081 -11.990320 33.729679 0.443341 0.640317 0.627250 
-35.439331 -11.962040 33.679111 0.546989 0.341714 0.764222 
-35.380299 -11.934270 33.627850 0.654814 0.446176 0.610038 
-35.351509 -11.928060 33.546951 0.529348 0.427192 0.733006 
-35.261959 -11.878540 33.525600 0.273716 0.170610 0.946558 
-35.190311 -11.841770 33.486740 0.679224 0.341316 0.649737 
-35.158211 -11.833200 33.409069 0.588279 0.560186 0.583198 
-35.102001 -11.807440 33.355068 0.334036 0.663584 0.669385 
-35.046749 -11.782370 33.300110 0.463174 0.722649 0.513077 
-35.014481 -11.773680 33.222580 0.468035 0.530780 0.706552 
-34.930031 -11.727780 33.196350 0.502147 0.607111 0.615845 
-34.911201 -11.728680 33.105579 0.516416 0.732270 0.443954 
-34.847519 -11.697590 33.058929 0.191826 0.756755 0.624919 
-34.789902 -11.670820 33.006329 0.315664 0.845597 0.430490 
-34.765881 -11.668020 32.920620 0.352922 0.752833 0.555597 
-34.689899 -11.628160 32.886101 0.473654 0.715608 0.513378 
-34.676640 -11.633050 32.789761 0.651582 0.581721 0.486869 
-34.611290 -11.600760 32.744770 0.435496 0.593055 0.677222 
-34.563820 -11.581230 32.682159 0.417246 0.768615 0.484908 
-34.530319 -11.571680 32.605740 0.538766 0.581647 0.609441 
-34.464748 -11.539240 32.560982 0.727853 0.536275 0.427364 
-34.466770 -11.555050 32.449409 0.631926 0.533296 0.562375 
-34.384449 -11.510650 32.421230 0.469570 0.374668 0.799455 
-34.349289 -11.499910 32.346401 0.610114 0.471699 0.636601 
-34.284149 -11.467770 32.301239 0.372619 0.404801 0.835040 
-34.210602 -11.429620 32.264420 0.287169 0.463557 0.838242 
-34.150700 -11.401220 32.214100 0.177287 0.630995 0.755258 
-34.085781 -11.369240 32.168758 0.136234 0.434364 0.890375 
-33.981880 -11.309400 32.162109 0.094388 0.319616 0.942834 
-33.902241 -11.266890 32.131432 0.512318 0.589125 0.624870 
-33.875130 -11.261900 32.048611 0.537248 0.592309 0.600445 
-33.812210 -11.231340 32.001339 0.569419 0.648680 0.504951 
-33.793560 -11.232410 31.910080 0.353980 0.825069 0.440409 
-33.730000 -11.201380 31.863449 0.394480 0.834841 0.383961 
-33.705921 -11.198580 31.777550 0.498274 0.850097 0.170466 
-33.688728 -11.200690 31.684759 0.749274 0.618917 0.235649 
-33.660679 -11.195060 31.602751 0.762116 0.567277 0.312050 
-33.625740 -11.184500 31.527580 0.748149 0.565099 0.347760 
-33.603130 -11.182760 31.440109 0.736577 0.577835 0.351512 
-33.567059 -11.171390 31.366030 0.596642 0.544486 0.589536 
-33.501389 -11.138860 31.321489 0.403890 0.475714 0.781389 
-33.442581 -11.111230 31.270100 0.605706 0.473218 0.639675 
-33.405842 -11.099390 31.196680 0.443446 0.403809 0.800183 
-33.321152 -11.053250 31.171169 0.499108 0.499937 0.707781 
-33.287540 -11.043650 31.094601 0.460069 0.635378 0.620187 
-33.224018 -11.012640 31.047951 0.368136 0.496282 0.786244 
-33.155819 -10.978300 31.005989 0.626805 0.551872 0.550047 
-33.141510 -10.982510 30.910080 0.605826 0.498500 0.620059 
-33.065578 -10.942620 30.875870 0.568693 0.477258 0.669935 
-33.037251 -10.936810 30.793970 0.574048 0.598690 0.558605 
-32.973721 -10.905790 30.747351 0.227099 0.539133 0.811025 
-32.891460 -10.861370 30.719549 0.543471 0.584947 0.602060 
-32.881599 -10.868780 30.619070 0.453467 0.582580 0.674513 
-32.784271 -10.813570 30.606421 0.279025 0.653724 0.703413 
-32.746471 -10.800970 30.533991 0.378139 0.826616 0.416794 
-32.704670 -10.785520 30.465561 0.469484 0.712408 0.521593 
-32.653610 -10.763430 30.406450 0.637292 0.701308 0.319416 
-32.652012 -10.776770 30.297550 0.491231 0.687785 0.534457 
-32.553921 -10.721000 30.285770 0.439392 0.453833 0.775223 
-32.523670 -10.713820 30.205681 0.614180 0.574220 0.541345 
-32.472740 -10.691830 30.146410 0.507715 0.587481 0.630152 
-32.426060 -10.672880 30.082870 0.758741 0.488899 0.430454 
-32.405319 -10.672520 29.993139 0.678375 0.357160 0.642062 
-32.316551 -10.623410 29.972059 0.141927 0.364481 0.920332 
-32.247169 -10.588190 29.931431 0.515397 0.649296 0.559268 
-32.227638 -10.588710 29.840441 0.442827 0.632048 0.635939 
-32.142220 -10.541990 29.816040 0.395569 0.548229 0.736866 
-32.110111 -10.533490 29.737740 0.698077 0.436266 0.567768 
-32.045391 -10.501610 29.692440 0.417482 0.411012 0.810419 
-31.987070 -10.474310 29.640659 0.743120 0.534147 0.403064 
-31.984699 -10.487150 29.532209 0.744265 0.590257 0.312517 
-31.941271 -10.470540 29.465321 0.768375 0.565514 0.299654 
-31.933580 -10.479560 29.362181 0.703826 0.504599 0.500009 
-31.865391 -10.445190 29.320379 0.759570 0.476573 0.442642 
-31.869780 -10.462890 29.204920 0.646896 0.590511 0.482516 
-31.792440 -10.421960 29.172409 0.367922 0.434731 0.821975 
-31.733110 -10.393940 29.121639 0.606033 0.585472 0.538466 
-31.712580 -10.393770 29.031410 0.595658 0.641736 0.483080 
-31.658020 -10.369170 28.975771 0.506462 0.669738 0.543090 
-31.624901 -10.359970 28.898319 0.353608 0.605647 0.712848 
-31.533430 -10.308880 28.880260 0.281051 0.310495 0.908077 
-31.467430 -10.276080 28.836281 0.345558 0.622010 0.702633 
-31.422800 -10.258620 28.770540 0.244920 0.743544 0.622219 
-31.350599 -10.221350 28.732920 0.245913 0.586956 0.771369 
-31.285089 -10.188890 28.688480 0.475966 0.716655 0.509767 
-31.266529 -10.190150 28.596140 0.465612 0.700613 0.540692 
-31.191441 -10.150810 28.561489 0.475500 0.705822 0.525085 
-31.187469 -10.162550 28.454210 0.501082 0.678842 0.536740 
-31.110760 -10.122040 28.421230 0.111473 0.454329 0.883832 
-31.020691 -10.071930 28.401939 0.557068 0.526489 0.642249 
-31.001450 -10.072710 28.310209 0.631154 0.510441 0.584033 
-30.933390 -10.038410 28.268419 0.535854 0.481364 0.693649 
-30.893471 -10.024330 28.197840 0.615989 0.562598 0.551400 
-30.845039 -10.004140 28.135960 0.661725 0.561474 0.496858 
-30.807211 -9.991570 28.063200 0.554751 0.774871 0.303028 
-30.792450 -9.995577 27.966770 0.483654 0.719239 0.498773 
-30.721809 -9.959419 27.927660 0.588145 0.678219 0.440573 
-30.723101 -9.974978 27.814699 0.513731 0.750064 0.416515 
-30.661560 -9.945367 27.766230 0.359626 0.608624 0.707281 
-30.602711 -9.917682 27.715010 0.464054 0.518353 0.718306 
-30.547960 -9.892953 27.659580 0.342722 0.321164 0.882833 
-30.461790 -9.845621 27.636480 0.645846 0.406763 0.646087 
-30.442480 -9.846375 27.544590 0.519810 0.573102 0.633523 
-30.372351 -9.810581 27.504999 0.254556 0.342119 0.904520 
-30.292351 -9.767673 27.475611 0.660476 0.373751 0.651215 
-30.262421 -9.760796 27.394630 0.576024 0.457897 0.677146 
-30.190121 -9.723430 27.357321 0.659785 0.499540 0.561376 
-30.180731 -9.731339 27.255110 0.649873 0.626110 0.430873 
-30.120939 -9.702972 27.204901 0.570285 0.693843 0.439723 
-30.100540 -9.702958 27.114010 0.744752 0.623775 0.237170 
-30.067570 -9.693905 27.036079 0.689409 0.641566 0.336316 
-30.040070 -9.688787 26.952471 0.561198 0.761691 0.323858 
-30.013781 -9.684542 26.867590 0.469484 0.623248 0.625417 
-29.929110 -9.638268 26.843100 0.520852 0.670820 0.527933 
-29.928190 -9.652296 26.731920 0.641625 0.587360 0.493280 
-29.856421 -9.615308 26.694090 0.276382 0.481094 0.831962 
-29.793530 -9.584714 26.647070 0.421723 0.598957 0.680735 
-29.751591 -9.569210 26.578341 0.441153 0.447941 0.777645 
-29.661779 -9.519218 26.559271 0.523227 0.553798 0.647719 
-29.643030 -9.520422 26.466471 0.392341 0.636874 0.663671 
-29.554489 -9.471344 26.446119 0.148095 0.232309 0.961301 
-29.466249 -9.422470 26.425501 0.694885 0.389442 0.604540 
-29.474340 -9.443017 26.304770 0.615208 0.497457 0.611601 
-29.377279 -9.387788 26.293341 0.179257 0.438982 0.880433 
-29.306520 -9.351511 26.254589 0.597259 0.602574 0.529327 
-29.297480 -9.359719 26.151600 0.617944 0.618333 0.485603 
-29.239830 -9.332891 26.099211 0.635540 0.632900 0.442183 
-29.218330 -9.332125 26.009140 0.427170 0.778952 0.459086 
-29.155090 -9.301268 25.962561 0.525036 0.765692 0.371555 
-29.161461 -9.320602 25.843380 0.574027 0.689730 0.441321 
-29.089390 -9.283372 25.806021 0.319985 0.610899 0.724163 
-29.034510 -9.258544 25.750710 0.523068 0.747146 0.410089 
-29.017130 -9.260764 25.656231 0.453107 0.723766 0.520440 
-28.942209 -9.221478 25.621870 0.620240 0.625633 0.473165 
-28.941919 -9.236030 25.509480 0.832764 0.519549 0.191241 
-28.906679 -9.225381 25.433590 0.795454 0.502935 0.338096 
-28.887150 -9.226057 25.341261 0.507963 0.533437 0.676328 
-28.801821 -9.179257 25.317801 0.027689 0.364626 0.930742 
-28.710779 -9.128337 25.300350 0.297466 0.538436 0.788416 
-28.669201 -9.113102 25.231100 0.365025 0.473122 0.801818 
-28.573500 -9.058810 25.218599 0.455192 0.403418 0.793760 
-28.533871 -9.044989 25.147301 0.586009 0.667843 0.458889 
-28.498320 -9.034108 25.071720 0.356414 0.612359 0.705681 
-28.419870 -8.992260 25.041170 0.562673 0.500053 0.658290 
-28.386959 -8.983294 24.962790 0.569325 0.596483 0.565753 
-28.327070 -8.954840 24.912769 0.617568 0.660496 0.427030 
-28.325710 -8.968659 24.801170 0.815968 0.576913 -0.036974 
-28.317400 -8.977468 24.696840 0.671527 0.739820 0.041443 
-28.305130 -8.983425 24.596630 0.439620 0.817962 0.371041 
-28.247231 -8.956415 24.544460 0.581567 0.660131 0.475401 
-28.217970 -8.950105 24.462090 0.544677 0.655581 0.523011 
-28.167891 -8.928744 24.401670 0.322357 0.462656 0.825855 
-28.072109 -8.874368 24.389460 0.061661 0.362573 0.929913 
-27.996450 -8.834515 24.356070 0.392974 0.518249 0.759598 
-27.948330 -8.814575 24.293591 0.411538 0.518519 0.749516 
-27.880100 -8.780093 24.252380 0.541381 0.672795 0.504236 
-27.877890 -8.793341 24.141371 0.484978 0.655972 0.578357 
-27.787600 -8.742908 24.123489 0.482079 0.474875 0.736270 
-27.753901 -8.733392 24.045759 0.790077 0.437944 0.428932 
-27.708340 -8.715299 23.980570 0.367441 0.524992 0.767704 
-27.636600 -8.678281 23.943090 0.538894 0.567902 0.622158 
-27.604071 -8.669610 23.864090 0.281226 0.713589 0.641641 
-27.521490 -8.624744 23.838131 0.248417 0.723485 0.644096 
-27.490000 -8.616832 23.758011 0.362149 0.801895 0.475197 
-27.432961 -8.590433 23.704990 0.259176 0.650685 0.713748 
-27.364840 -8.556019 23.663731 0.574133 0.617288 0.537891 
-27.344709 -8.556334 23.571501 0.586427 0.716315 0.378148 
-27.299070 -8.538186 23.506359 0.685272 0.688792 0.236576 
-27.295410 -8.550426 23.396561 0.505313 0.754238 0.419267 
-27.231951 -8.519387 23.350340 0.478633 0.612465 0.629124 
-27.183121 -8.498935 23.288561 0.533711 0.648359 0.542938 
-27.142860 -8.484689 23.217649 0.430416 0.657554 0.618356 
-27.082701 -8.456041 23.167919 0.472154 0.722320 0.505296 
-27.058310 -8.453287 23.080080 0.514942 0.656644 0.551048 
-26.991430 -8.419764 23.037531 0.244872 0.634514 0.733096 
-26.935680 -8.394305 22.983110 0.308973 0.720978 0.620263 
-26.881041 -8.369648 22.927521 0.234170 0.623828 0.745656 
-26.806170 -8.330338 22.893530 0.536779 0.651799 0.535748 
-26.789820 -8.333415 22.797029 0.539760 0.554434 0.633452 
-26.712379 -8.292242 22.765800 0.633811 0.310844 0.708279 
-26.687901 -8.289434 22.677950 0.727630 0.541377 0.421266 
-26.643450 -8.272158 22.611450 0.637802 0.593855 0.490454 
-26.602011 -8.257070 22.541710 0.704003 0.602412 0.376137 
-26.577089 -8.253956 22.454250 0.651326 0.565749 0.505670 
-26.519300 -8.227015 22.402020 0.761555 0.541803 0.355646 
-26.524481 -8.245724 22.282240 0.616384 0.654302 0.438132 
-26.455839 -8.210919 22.241619 0.455627 0.654509 0.603342 
-26.423441 -8.202398 22.162100 0.575501 0.561801 0.594288 
-26.361820 -8.172683 22.113960 0.368350 0.387660 0.845008 
-26.292971 -8.137721 22.073589 0.638780 0.436050 0.633893 
-26.259640 -8.128522 21.995050 0.423335 0.526452 0.737316 
-26.178169 -8.084408 21.968269 0.317479 0.589601 0.742683 
-26.137280 -8.069725 21.897860 0.473610 0.659327 0.583936 
-26.088350 -8.049215 21.836081 0.413735 0.422114 0.806624 
-26.007990 -8.005893 21.808170 0.545379 0.494006 0.677142 
-25.978140 -7.999224 21.725830 0.497625 0.572285 0.651813 
-25.896610 -7.955052 21.699209 0.154673 0.362356 0.919116 
-35.746269 -12.136560 34.437920 0.570764 0.382330 0.726672 
-35.691799 -12.112050 34.382240 0.686505 0.527717 0.500225 
-35.690079 -12.125110 34.275139 0.878579 0.430220 0.207388 
-35.650581 -12.111260 34.204842 0.641565 0.528858 0.555611 
-35.598511 -12.088440 34.146809 0.754300 0.589985 0.288010 
-35.610149 -12.111040 34.026550 0.784611 0.510009 0.352530 
-35.554939 -12.086000 33.971550 0.874232 0.296168 0.384712 
-35.562149 -12.105460 33.855530 0.788221 0.422264 0.447662 
-35.493778 -12.071030 33.813381 0.450352 0.530804 0.717935 
-35.443710 -12.049650 33.753342 0.685116 0.504107 0.525825 
-35.413960 -12.042770 33.673401 0.566251 0.372293 0.735362 
-35.326591 -11.994790 33.649879 0.423460 0.630164 0.650827 
-35.309460 -11.996900 33.557571 0.598558 0.490157 0.633620 
-35.225639 -11.951450 33.530602 0.162189 0.345041 0.924468 
-35.155800 -11.915970 33.489960 0.401684 0.591888 0.698798 
-35.111000 -11.898350 33.424759 0.357496 0.635303 0.684534 
-35.030350 -11.855140 33.394760 0.342645 0.629830 0.697071 
-34.992519 -11.842490 33.322708 0.619494 0.660523 0.424188 
-34.955910 -11.830720 33.249439 0.491409 0.507021 0.708129 
-34.879440 -11.790500 33.215370 0.453953 0.583290 0.673572 
-34.850281 -11.784050 33.134769 0.539925 0.638965 0.547910 
-34.786491 -11.752870 33.088242 0.268575 0.581579 0.767876 
-34.724979 -11.723320 33.039471 0.481303 0.721390 0.497940 
-34.699211 -11.719290 32.955502 0.481564 0.684822 0.546914 
-34.635220 -11.687960 32.909191 0.558258 0.706010 0.435773 
-34.635651 -11.702650 32.799332 0.537709 0.703534 0.464660 
-34.560410 -11.663290 32.764111 0.352909 0.574431 0.738569 
-34.505268 -11.638290 32.709061 0.604867 0.638235 0.476227 
-34.485168 -11.638320 32.619411 0.732344 0.473063 0.489779 
-34.428730 -11.612390 32.565639 0.808104 0.427707 0.405012 
-34.423752 -11.623220 32.460991 0.626321 0.493769 0.603253 
-34.338711 -11.576860 32.435490 0.292053 0.477209 0.828841 
-34.282490 -11.551090 32.381512 0.617602 0.531777 0.579467 
-34.249870 -11.542180 32.304161 0.435944 0.417263 0.797398 
-34.151920 -11.486590 32.291512 -0.013789 0.473125 0.880888 
-34.068710 -11.441520 32.264309 0.209974 0.686680 0.695976 
-34.027882 -11.426740 32.195099 0.283338 0.529831 0.799374 
-33.924950 -11.367570 32.187511 0.303458 0.239187 0.922336 
-33.868690 -11.341770 32.133621 0.692358 0.353368 0.629104 
-33.831169 -11.329350 32.061138 0.555598 0.432618 0.710037 
-33.757198 -11.290880 32.024849 0.405734 0.531131 0.743828 
-33.705349 -11.268220 31.966600 0.280572 0.791216 0.543375 
-33.668018 -11.255950 31.893900 0.483510 0.820049 0.306165 
-33.638512 -11.249270 31.813410 0.579107 0.810727 0.085774 
-33.641201 -11.265630 31.700830 0.732833 0.667071 0.134064 
-33.603142 -11.252830 31.628799 0.657289 0.693194 0.295725 
-33.590111 -11.257960 31.531799 0.751323 0.543171 0.374806 
-33.527870 -11.227870 31.483841 0.579651 0.672724 0.459835 
-33.526211 -11.241130 31.375441 0.674904 0.563698 0.476182 
-33.458691 -11.207280 31.332741 0.530409 0.415630 0.738863 
-33.415180 -11.190590 31.266081 0.565388 0.444272 0.694953 
-33.347649 -11.156720 31.223410 0.308331 0.400903 0.862675 
-33.275101 -11.119250 31.185780 0.376846 0.519738 0.766720 
-33.226952 -11.099250 31.123760 0.475937 0.651068 0.591265 
-33.181511 -11.081190 31.059019 0.552621 0.456843 0.697069 
-33.120029 -11.051640 31.010340 0.681019 0.467794 0.563367 
-33.091919 -11.045990 30.928240 0.487568 0.570815 0.660642 
-33.017120 -11.006910 30.892910 0.384292 0.626788 0.677832 
-32.979832 -10.994680 30.819990 0.506755 0.670562 0.541799 
-32.927319 -10.971550 30.762329 0.447106 0.432644 0.782889 
-32.860271 -10.938020 30.719250 0.455238 0.493133 0.741335 
-32.803799 -10.912050 30.665581 0.201014 0.555266 0.807015 
-32.721889 -10.867860 30.637470 0.319183 0.544774 0.775464 
-32.672710 -10.847120 30.576481 0.501208 0.754581 0.423554 
-32.653431 -10.847800 30.485430 0.668641 0.598643 0.441073 
-32.593849 -10.819610 30.434891 0.632879 0.660915 0.403306 
-32.594940 -10.834910 30.323271 0.536828 0.691601 0.483222 
-32.530449 -10.803190 30.277660 0.333029 0.503593 0.797174 
-32.454990 -10.763620 30.243120 0.425425 0.667741 0.610848 
-32.423851 -10.755810 30.163919 0.616142 0.585100 0.527283 
-32.367352 -10.729820 30.110279 0.711234 0.587090 0.386616 
-32.368599 -10.745250 29.998350 0.575612 0.500127 0.646950 
-32.264381 -10.685040 29.992880 0.157263 0.261187 0.952392 
-32.187710 -10.644590 29.959629 0.481640 0.587982 0.649846 
-32.163040 -10.641430 29.873840 0.378016 0.676611 0.631903 
-32.082680 -10.598330 29.844330 0.533186 0.608708 0.587527 
-32.071079 -10.604540 29.745300 0.498009 0.699959 0.511902 
-32.005741 -10.572210 29.700609 0.350320 0.588577 0.728596 
-31.943010 -10.541760 29.653299 0.554597 0.713723 0.427811 
-31.934490 -10.550200 29.551069 0.613779 0.720049 0.323735 
-31.879650 -10.525400 29.495760 0.648805 0.695722 0.308256 
-31.882280 -10.541850 29.382160 0.700354 0.590352 0.401235 
-31.821020 -10.512450 29.333330 0.700005 0.551502 0.453695 
-31.807659 -10.517420 29.235889 0.662252 0.628179 0.408427 
-31.761330 -10.498740 29.171900 0.470370 0.407929 0.782525 
-31.681740 -10.456170 29.141701 0.453849 0.618025 0.641923 
-31.655781 -10.452120 29.056999 0.538266 0.633757 0.555537 
-31.582199 -10.413870 29.020710 0.365397 0.707818 0.604549 
-31.556379 -10.409920 28.935841 0.459734 0.691961 0.556628 
-31.496519 -10.381510 28.885611 0.197281 0.423513 0.884148 
-31.385990 -10.316710 28.887011 0.282390 0.612036 0.738693 
-31.353600 -10.308040 28.808821 0.561064 0.640478 0.524401 
-31.304501 -10.287370 28.747650 0.418801 0.470100 0.776925 
-31.231470 -10.249500 28.710890 0.525374 0.642297 0.558065 
-31.218161 -10.254540 28.613190 0.524344 0.619083 0.584637 
-31.134331 -10.208910 28.587469 0.431600 0.614771 0.660134 
-31.100090 -10.198910 28.511120 0.370895 0.754174 0.541904 
-31.043100 -10.172570 28.458000 0.327744 0.544567 0.772030 
-30.981770 -10.143100 28.409330 0.576320 0.596591 0.558511 
-30.957359 -10.140180 28.322889 0.593562 0.565126 0.572989 
-30.888321 -10.105170 28.282110 0.441380 0.559769 0.701315 
-30.849140 -10.091630 28.210760 0.546954 0.675745 0.494175 
-30.808599 -10.077110 28.140800 0.517615 0.613008 0.596906 
-30.741751 -10.043670 28.097799 0.551201 0.715376 0.429434 
-30.738010 -10.055620 27.990070 0.674562 0.583364 0.452386 
-30.671000 -10.022070 27.947241 0.427813 0.713650 0.554690 
-30.647270 -10.019650 27.859970 0.444105 0.810982 0.380894 
-30.594660 -9.996456 27.802349 0.448932 0.711469 0.540622 
-30.560020 -9.986191 27.726250 0.420094 0.692490 0.586497 
-30.497440 -9.955819 27.678881 0.375868 0.446864 0.811810 
-30.422050 -9.916230 27.644690 0.485091 0.472451 0.735852 
-30.382021 -9.902095 27.574120 0.383551 0.621755 0.682869 
-30.308580 -9.863903 27.537960 0.374963 0.481987 0.791891 
-30.262270 -9.845237 27.473869 0.585330 0.564429 0.582073 
-30.219879 -9.829403 27.405710 0.530136 0.515489 0.673222 
-30.153740 -9.796459 27.362061 0.511388 0.581421 0.632797 
-30.117041 -9.784721 27.288031 0.530341 0.706871 0.468051 
-30.073009 -9.767699 27.221560 0.683684 0.660248 0.310884 
-30.065439 -9.776939 27.117420 0.775660 0.581806 0.244652 
-30.025391 -9.762795 27.046789 0.583901 0.598429 0.548583 
-29.967430 -9.735747 26.994680 0.534040 0.721910 0.440054 
-29.951530 -9.739003 26.899050 0.548419 0.616187 0.565287 
-29.879000 -9.701455 26.862009 0.683317 0.528211 0.504055 
-29.878820 -9.716040 26.750071 0.526797 0.669035 0.524287 
-29.798389 -9.672805 26.721210 0.295218 0.452511 0.841475 
-29.733690 -9.640900 26.676081 0.346108 0.683607 0.642565 
-29.700420 -9.631649 26.598370 0.362967 0.638091 0.679040 
-29.619539 -9.588075 26.570049 0.511613 0.548351 0.661486 
-29.587959 -9.580045 26.490561 0.541868 0.548283 0.636997 
-29.526831 -9.550705 26.441759 0.366311 0.217591 0.904694 
-29.440620 -9.503287 26.419010 0.633011 0.388043 0.669866 
-29.416800 -9.500849 26.331450 0.522712 0.530783 0.667114 
-29.340940 -9.460889 26.297979 0.404175 0.272119 0.873266 
-29.284941 -9.435248 26.243870 0.690617 0.424597 0.585462 
-29.245529 -9.421574 26.172489 0.646337 0.485805 0.588424 
-29.188560 -9.395232 26.119390 0.629174 0.545633 0.553556 
-29.161890 -9.390749 26.034710 0.596914 0.582757 0.551441 
-29.099960 -9.360832 25.986780 0.503847 0.729793 0.462105 
-29.087061 -9.366289 25.887699 0.345675 0.873024 0.344003 
-29.034031 -9.342792 25.830469 0.341320 0.707735 0.618556 
-28.972561 -9.313201 25.782061 0.504514 0.749640 0.428375 
-28.959209 -9.318347 25.683380 0.568161 0.713293 0.410374 
-28.908791 -9.296733 25.623409 0.785894 0.551561 0.279556 
-28.908260 -9.311142 25.511250 0.695751 0.665435 0.270421 
-28.863770 -9.293810 25.445061 0.514109 0.731169 0.448424 
-28.819321 -9.276516 25.378799 0.151172 0.721561 0.675645 
-28.736790 -9.231720 25.352430 0.015982 0.480781 0.876695 
-28.648060 -9.182449 25.332569 0.432791 0.539046 0.722580 
-28.616409 -9.174389 25.252930 0.441160 0.506070 0.741128 
-28.536480 -9.131470 25.223890 0.372932 0.384070 0.844637 
-28.477301 -9.103531 25.173109 0.517011 0.612341 0.598112 
-28.440710 -9.091909 25.098610 0.449103 0.628877 0.634681 
-28.381359 -9.063844 25.048019 0.572000 0.582018 0.577989 
-28.349461 -9.055616 24.968571 0.607498 0.507210 0.611297 
-28.281900 -9.021615 24.926611 0.693459 0.554641 0.459879 
-28.283171 -9.037364 24.812241 0.673698 0.730039 0.114778 
-28.249439 -9.027819 24.734659 0.598506 0.782606 0.171226 
-28.232010 -9.030057 24.639900 0.518522 0.826077 0.220752 
-28.206921 -9.026771 24.553160 0.626257 0.670719 0.397415 
-28.151670 -9.001672 24.498211 0.406737 0.743986 0.530141 
-28.118231 -8.992351 24.420231 0.394554 0.529778 0.750775 
-28.021570 -8.937306 24.408979 0.116006 0.336667 0.934451 
-27.953159 -8.902698 24.367920 0.349365 0.561318 0.750244 
-27.905180 -8.882855 24.305309 0.306284 0.558495 0.770891 
-27.813721 -8.831562 24.288651 0.403798 0.666260 0.626933 
-27.788710 -8.828339 24.201759 0.651886 0.632774 0.417902 
-27.744680 -8.811357 24.134960 0.709854 0.462323 0.531379 
-27.711081 -8.801917 24.057119 0.546968 0.644423 0.534364 
-27.660139 -8.779939 23.997620 0.338640 0.584521 0.737331 
-27.587740 -8.742429 23.960859 0.323305 0.671495 0.666759 
-27.548140 -8.728651 23.889351 0.216694 0.694139 0.686451 
-27.459311 -8.679249 23.870029 0.411951 0.538157 0.735312 
-27.410480 -8.658790 23.808319 0.477240 0.691733 0.541985 
-27.379259 -8.651080 23.727900 0.514013 0.622976 0.589654 
-27.317039 -8.620931 23.680389 0.497643 0.644787 0.580173 
-27.281860 -8.610362 23.604151 0.591637 0.711239 0.379610 
-27.246590 -8.599726 23.528000 0.581534 0.762930 0.282411 
-27.221331 -8.596344 23.441170 0.625732 0.728334 0.279266 
-27.189159 -8.587963 23.361670 0.585858 0.608640 0.535096 
-27.137711 -8.565619 23.302670 0.551456 0.589978 0.589764 
-27.089670 -8.545740 23.240049 0.376584 0.595238 0.709843 
-27.021839 -8.511522 23.198521 0.568724 0.641997 0.514191 
-27.005501 -8.514617 23.102091 0.457329 0.660089 0.595930 
-26.918949 -8.466840 23.080521 0.263519 0.588519 0.764332 
-26.871849 -8.447646 23.016890 0.396459 0.693090 0.602036 
-26.820610 -8.425447 22.957680 0.389320 0.608254 0.691706 
-26.761980 -8.397897 22.906349 0.562024 0.682849 0.466740 
-26.747530 -8.402370 22.807810 0.471749 0.693978 0.543919 
-26.675570 -8.365149 22.770741 0.258737 0.660108 0.705204 
-26.615009 -8.336198 22.721491 0.345218 0.841883 0.414799 
-26.595169 -8.336777 22.628639 0.556681 0.751867 0.353274 
-26.544979 -8.315346 22.568279 0.558894 0.759958 0.331815 
-26.531759 -8.320724 22.468300 0.635121 0.655117 0.409198 
-26.477240 -8.296158 22.412550 0.674303 0.645506 0.358660 
-26.464729 -8.302058 22.311750 0.558841 0.686387 0.465371 
-26.399719 -8.269886 22.267229 0.622615 0.570814 0.535278 
-26.381880 -8.271926 22.172100 0.557623 0.609531 0.563497 
-26.313959 -8.237640 22.130711 0.412445 0.482929 0.772443 
-26.260860 -8.214099 22.073429 0.450217 0.579778 0.679089 
-26.207470 -8.190351 22.016451 0.250079 0.573717 0.779942 
-26.121321 -8.142827 21.994720 0.265552 0.559203 0.785350 
-26.071051 -8.121338 21.934410 0.475002 0.704297 0.527578 
-26.032980 -8.108708 21.860950 0.395479 0.560802 0.727391 
-25.950500 -8.063843 21.835320 0.583156 0.507077 0.634667 
-25.936291 -8.068539 21.736139 0.618767 0.490295 0.613790 
-25.864651 -8.031531 21.698860 0.340138 0.253705 0.905505 
-35.720371 -12.216840 34.432819 0.473170 0.215981 0.854086 
-35.650902 -12.181620 34.391769 0.695520 0.466999 0.546044 
-35.638180 -12.186870 34.295380 0.704607 0.670359 0.232696 
-35.610039 -12.181120 34.214001 0.672222 0.551603 0.493814 
-35.556080 -12.156960 34.157810 0.750549 0.596788 0.283759 
-35.573380 -12.183630 34.032009 0.771425 0.563509 0.295568 
-35.519341 -12.159410 33.975868 0.728039 0.565337 0.387755 
-35.503139 -12.162190 33.882729 0.520252 0.709835 0.474839 
-35.442848 -12.133530 33.832691 0.579983 0.568541 0.583422 
-35.412300 -12.126080 33.753540 0.648602 0.593061 0.477068 
-35.364109 -12.106040 33.691650 0.287068 0.520098 0.804419 
-35.266991 -12.051090 33.677700 0.527121 0.591313 0.610322 
-35.267632 -12.065900 33.567970 0.547718 0.560939 0.620768 
-35.159969 -12.003420 33.564388 0.116127 0.342764 0.932216 
-35.085331 -11.964500 33.528469 0.401685 0.608983 0.683951 
-35.053871 -11.956410 33.450180 0.463972 0.600257 0.651477 
-34.983429 -11.920480 33.410160 0.594913 0.416441 0.687500 
-34.943241 -11.906150 33.340439 0.648480 0.628551 0.429416 
-34.924412 -11.907080 33.249691 0.517343 0.534951 0.667970 
-34.825520 -11.850830 33.237679 0.453014 0.583293 0.674202 
-34.810520 -11.854500 33.143139 0.611035 0.544320 0.574762 
-34.732040 -11.812830 33.111069 0.298845 0.456985 0.837768 
-34.673092 -11.785100 33.059799 0.661014 0.552059 0.508224 
-34.652248 -11.784610 32.970959 0.529093 0.577533 0.621704 
-34.571781 -11.741510 32.940899 0.565401 0.618370 0.545839 
-34.558998 -11.746770 32.844082 0.553364 0.743461 0.375573 
-34.514011 -11.729020 32.779018 0.544163 0.550866 0.632798 
-34.458599 -11.703820 32.724251 0.722785 0.552142 0.415597 
-34.450939 -11.712760 32.622292 0.757037 0.483690 0.439248 
-34.393261 -11.685940 32.569740 0.652293 0.606130 0.455104 
-34.379929 -11.690820 32.473351 0.475969 0.630033 0.613606 
-34.288818 -11.640110 32.453869 0.469203 0.438295 0.766646 
-34.256290 -11.631280 32.376431 0.509829 0.609938 0.606671 
-34.191730 -11.599540 32.330700 0.071693 0.575768 0.814464 
-34.093559 -11.543760 32.318310 -0.019773 0.418786 0.907870 
-34.011429 -11.499450 32.290031 0.448009 0.596298 0.666121 
-33.983608 -11.493990 32.207920 0.514559 0.461701 0.722538 
-33.902279 -11.450240 32.178902 0.329493 0.227671 0.916297 
-33.831940 -11.414360 32.138988 0.541400 0.457686 0.705273 
-33.795330 -11.402610 32.065601 0.502079 0.478529 0.720366 
-33.720169 -11.363270 32.030499 0.158082 0.457811 0.874882 
-33.637920 -11.318860 32.002468 0.327082 0.678493 0.657773 
-33.598961 -11.305420 31.931410 0.663692 0.663016 0.346298 
-33.569290 -11.298640 31.851089 0.756070 0.648273 0.089998 
-33.589409 -11.327500 31.721149 0.670339 0.727548 0.146011 
-33.547569 -11.312010 31.652889 0.771578 0.613278 0.168989 
-33.553829 -11.330960 31.536650 0.640489 0.606807 0.470701 
-33.484051 -11.295470 31.496210 0.580253 0.673279 0.458259 
-33.474800 -11.303320 31.395380 0.688585 0.595912 0.413207 
-33.417789 -11.276980 31.342199 0.463762 0.520050 0.717268 
-33.363831 -11.252820 31.285971 0.441177 0.588333 0.677663 
-33.315109 -11.232410 31.224520 0.368850 0.427668 0.825258 
-33.220501 -11.179130 31.208941 0.196343 0.571591 0.796702 
-33.175159 -11.161140 31.144110 0.543054 0.693362 0.473646 
-33.139809 -11.150310 31.069281 0.548630 0.575325 0.606636 
-33.077770 -11.120360 31.021160 0.522931 0.588122 0.616973 
-33.039299 -11.107300 30.949440 0.496584 0.479980 0.723204 
-32.955872 -11.062010 30.922770 0.469206 0.513415 0.718505 
-32.927490 -11.056180 30.840919 0.755095 0.496037 0.428695 
-32.885380 -11.040510 30.772829 0.511326 0.367381 0.776902 
-32.807350 -10.999100 30.740780 0.372820 0.485129 0.790983 
-32.765171 -10.983370 30.672760 0.543860 0.312598 0.778780 
-32.679680 -10.936600 30.648251 0.308663 0.300558 0.902437 
-32.615662 -10.905220 30.602180 0.672845 0.573727 0.467029 
-32.616169 -10.920110 30.491220 0.667041 0.568979 0.480956 
-32.545521 -10.883970 30.451820 0.574888 0.636522 0.514144 
-32.528179 -10.886070 30.358761 0.508426 0.709998 0.487243 
-32.460129 -10.851800 30.316750 0.373982 0.525539 0.764164 
-32.410118 -10.830470 30.256580 0.712810 0.482543 0.508973 
-32.380299 -10.823620 30.176041 0.710961 0.471021 0.522182 
-32.331169 -10.802910 30.114969 0.709863 0.586497 0.390020 
-32.315899 -10.806520 30.019699 0.598537 0.501693 0.624546 
-32.236271 -10.763930 29.989410 0.174039 0.179373 0.968264 
-32.142052 -10.710870 29.973890 0.508636 0.415697 0.753980 
-32.108929 -10.701660 29.896641 0.454605 0.549197 0.701225 
-32.037811 -10.665170 29.857800 0.223773 0.646958 0.728952 
-31.974190 -10.634070 29.811390 0.315869 0.824637 0.469255 
-31.947380 -10.629390 29.727739 0.401550 0.724124 0.560716 
-31.873270 -10.590750 29.691959 0.626267 0.649367 0.431408 
-31.877609 -10.608440 29.576710 0.802646 0.543819 0.244990 
-31.834070 -10.591760 29.509939 0.762341 0.587666 0.271081 
-31.838970 -10.609860 29.394039 0.786216 0.503508 0.358250 
-31.780210 -10.582250 29.342680 0.687312 0.519803 0.507354 
-31.761959 -10.583740 29.250191 0.632233 0.655506 0.413031 
-31.711210 -10.561880 29.190689 0.272667 0.556052 0.785149 
-31.627991 -10.516700 29.164181 0.512942 0.626776 0.586551 
-31.617960 -10.524100 29.063290 0.597958 0.519361 0.610500 
-31.528240 -10.474240 29.043430 0.456434 0.557980 0.693056 
-31.503719 -10.471230 28.957239 0.564102 0.613240 0.552924 
-31.437460 -10.438230 28.913530 0.135862 0.368529 0.919635 
-31.344561 -10.386080 28.896971 0.512844 0.376587 0.771475 
-31.312910 -10.377940 28.818020 0.747576 0.394655 0.534208 
-31.258360 -10.353350 28.762409 0.284555 0.423637 0.859977 
-31.176941 -10.309440 28.734221 0.581432 0.583623 0.566852 
-31.166460 -10.316530 28.633640 0.543701 0.611878 0.574452 
-31.092381 -10.277890 28.597969 0.463396 0.526850 0.712526 
-31.051720 -10.263300 28.528170 0.533911 0.601088 0.594670 
-30.998619 -10.239750 28.471081 0.314580 0.538401 0.781770 
-30.919390 -10.197400 28.440729 0.558412 0.627453 0.542659 
-30.910801 -10.205870 28.338091 0.623474 0.539670 0.565718 
-30.830339 -10.162630 28.309019 0.415678 0.448443 0.791272 
-30.778900 -10.140270 28.250240 0.616739 0.598315 0.511520 
-30.752680 -10.136060 28.165621 0.552023 0.606609 0.572098 
-30.692631 -10.107510 28.115650 0.641609 0.671884 0.370014 
-30.700790 -10.128050 27.995701 0.540147 0.654756 0.528711 
-30.601959 -10.071590 27.985531 0.468075 0.642563 0.606646 
-30.593130 -10.079900 27.882980 0.575226 0.719904 0.388399 
-30.537910 -10.054830 27.828039 0.377892 0.673939 0.634826 
-30.476610 -10.025380 27.779360 0.594076 0.644726 0.481043 
-30.466351 -10.032670 27.678190 0.581401 0.462814 0.669161 
-30.373751 -9.980685 27.661711 0.414764 0.458624 0.785898 
-30.334120 -9.966834 27.590740 0.611760 0.381696 0.692862 
-30.267450 -9.933514 27.547600 0.298749 0.390761 0.870664 
-30.192539 -9.894247 27.512991 0.436253 0.683707 0.585002 
-30.175070 -9.896365 27.419149 0.510620 0.628526 0.586704 
-30.093889 -9.852587 27.391010 0.234119 0.742299 0.627838 
-30.066500 -9.847557 27.307381 0.401269 0.826127 0.395597 
-30.013889 -9.824357 27.249781 0.617935 0.758523 0.206878 
-30.012289 -9.837923 27.139460 0.616822 0.766148 0.180413 
-29.978920 -9.828592 27.061939 0.557211 0.640907 0.527972 
-29.920380 -9.801130 27.010420 0.596082 0.678016 0.430094 
-29.911591 -9.809521 26.907450 0.624829 0.590793 0.510444 
-29.842461 -9.774423 26.866880 0.616723 0.558610 0.554624 
-29.816250 -9.770265 26.781879 0.460350 0.724647 0.512801 
-29.765160 -9.748164 26.722651 0.307783 0.487401 0.817136 
-29.664030 -9.689983 26.715290 0.507108 0.486447 0.711485 
-29.637489 -9.685595 26.630600 0.589532 0.483908 0.646750 
-29.573071 -9.653881 26.585211 0.519223 0.557312 0.647928 
-29.542150 -9.646334 26.505039 0.552720 0.624849 0.551420 
-29.485210 -9.620018 26.451880 0.319818 0.394261 0.861554 
-29.397560 -9.571539 26.430651 0.582531 0.427094 0.691555 
-29.376949 -9.571434 26.339729 0.510447 0.556457 0.655591 
-29.298929 -9.529907 26.308510 0.322968 0.434235 0.840911 
-29.235889 -9.499182 26.261740 0.653764 0.516243 0.553250 
-29.218630 -9.501498 26.167290 0.693377 0.419599 0.585804 
-29.145861 -9.463747 26.130650 0.571210 0.526574 0.629635 
-29.123329 -9.462270 26.041651 0.553249 0.524129 0.647460 
-29.035669 -9.413771 26.020550 0.368323 0.634625 0.679404 
-29.002781 -9.404809 25.942341 0.420282 0.850706 0.315693 
-28.976290 -9.400475 25.857430 0.480245 0.726391 0.491652 
-28.914339 -9.370538 25.809521 0.518740 0.724905 0.453235 
-28.897169 -9.372931 25.714840 0.685412 0.672605 0.278949 
-28.858540 -9.359840 25.642550 0.548251 0.772626 0.320110 
-28.835171 -9.357770 25.554279 0.475444 0.842802 0.252266 
-28.797440 -9.345325 25.481020 0.307531 0.845397 0.436725 
-28.747749 -9.324245 25.420271 0.146920 0.790872 0.594085 
-28.685940 -9.294408 25.372200 0.237144 0.553012 0.798711 
-28.610331 -9.254601 25.338610 0.365671 0.577650 0.729798 
-28.568399 -9.239124 25.269739 0.487334 0.506548 0.711276 
-28.493111 -9.199537 25.235849 0.237503 0.439516 0.866267 
-28.430811 -9.169344 25.188339 0.373812 0.665262 0.646291 
-28.384159 -9.150455 25.124411 0.486052 0.607560 0.628192 
-28.322269 -9.120553 25.076490 0.553836 0.637157 0.536000 
-28.303940 -9.122144 24.982790 0.585147 0.601631 0.543731 
-28.237391 -9.088869 24.939770 0.538644 0.654368 0.530721 
-28.211420 -9.084941 24.854059 0.524221 0.835123 0.166619 
-28.198210 -9.090244 24.754881 0.640383 0.746007 0.182710 
-28.159189 -9.076882 24.682859 0.646668 0.733892 0.207899 
-28.152380 -9.086826 24.576870 0.542639 0.728871 0.417481 
-28.089211 -9.056003 24.530260 0.618349 0.633786 0.464714 
-28.073170 -9.059273 24.433950 0.478326 0.501712 0.720757 
-27.972580 -9.001368 24.426849 0.048474 0.298002 0.953334 
-27.886450 -8.953922 24.404520 0.346017 0.554665 0.756716 
-27.847481 -8.940604 24.332390 0.421016 0.508140 0.751358 
-27.770990 -8.900131 24.299919 0.642172 0.493027 0.586975 
-27.768690 -8.913354 24.189011 0.597776 0.656358 0.460280 
-27.702129 -8.880066 24.146049 0.375688 0.666076 0.644360 
-27.643709 -8.852673 24.094469 0.341971 0.734436 0.586225 
-27.602690 -8.837872 24.024481 0.345706 0.615715 0.708084 
-27.517151 -8.790832 24.001659 0.315027 0.588192 0.744842 
-27.473690 -8.774272 23.934240 0.607942 0.549338 0.573266 
-27.435200 -8.761305 23.861561 0.591526 0.331567 0.734956 
-27.361120 -8.722558 23.826630 0.550177 0.491140 0.675342 
-27.327829 -8.713362 23.748409 0.589315 0.496281 0.637505 
-27.261141 -8.679974 23.705650 0.500600 0.590088 0.633400 
-27.232679 -8.674273 23.622280 0.631953 0.635312 0.443864 
-27.179720 -8.650834 23.564930 0.677742 0.645800 0.351580 
-27.179340 -8.665489 23.451651 0.640908 0.708898 0.294449 
-27.128759 -8.643773 23.391741 0.495665 0.707266 0.504075 
-27.089960 -8.630596 23.319281 0.457761 0.693711 0.556075 
-27.036489 -8.606786 23.262449 0.434225 0.598956 0.672830 
-26.979460 -8.580395 23.209400 0.670648 0.537465 0.511236 
-26.950640 -8.574454 23.126280 0.457971 0.569881 0.682274 
-26.875031 -8.534587 23.093069 0.330960 0.452170 0.828256 
-26.814810 -8.505877 23.043440 0.407665 0.631515 0.659544 
-26.771219 -8.489233 22.976061 0.462925 0.528252 0.711794 
-26.692530 -8.447128 22.946180 0.298733 0.724915 0.620691 
-26.664850 -8.442022 22.861790 0.342110 0.808632 0.478618 
-26.600750 -8.410498 22.816330 0.270505 0.651972 0.708350 
-26.542801 -8.383435 22.764299 0.417582 0.802317 0.426511 
-26.526991 -8.386942 22.667160 0.569845 0.772171 0.281120 
-26.482460 -8.369618 22.600750 0.519306 0.805823 0.284554 
-26.473370 -8.378017 22.496330 0.602804 0.737659 0.304118 
-26.423540 -8.356846 22.435570 0.715273 0.623327 0.315987 
-26.416420 -8.366684 22.328979 0.682150 0.593851 0.426629 
-26.361090 -8.341523 22.274090 0.539940 0.606966 0.583144 
-26.317900 -8.325178 22.206169 0.475389 0.672653 0.567048 
-26.268259 -8.304154 22.145161 0.329876 0.558476 0.761109 
-26.186060 -8.259484 22.119160 0.312184 0.677847 0.665631 
-26.154711 -8.251739 22.038500 0.426427 0.569955 0.702361 
-26.071461 -8.206309 22.013651 0.288082 0.488357 0.823721 
-26.019390 -8.183514 21.955271 0.676838 0.542012 0.498109 
-25.988680 -8.176234 21.873899 0.519592 0.482734 0.704976 
-25.917480 -8.139544 21.836130 0.494496 0.585234 0.642632 
-25.886080 -8.131770 21.755461 0.629571 0.667399 0.397766 
-35.688831 -12.293100 34.433220 0.523811 0.220959 0.822678 
-35.611851 -12.252520 34.399490 0.551655 0.453634 0.699924 
-35.578892 -12.243340 34.322830 0.607728 0.746353 0.271337 
-35.564018 -12.247070 34.228512 0.552484 0.709997 0.436653 
-35.502659 -12.217630 34.179550 0.697056 0.664645 0.268997 
-35.521030 -12.245090 34.052700 0.618004 0.749123 0.238507 
-35.471199 -12.223880 33.992439 0.641182 0.665740 0.381676 
-35.444111 -12.218900 33.909962 0.745780 0.508471 0.430429 
-35.397209 -12.199790 33.846821 0.533309 0.555226 0.638206 
-35.348049 -12.179060 33.785889 0.542861 0.680251 0.492505 
-35.315121 -12.169920 33.709068 0.456965 0.454270 0.764736 
-35.222870 -12.118430 33.690350 0.624703 0.465328 0.627069 
